# .PCD v0.7 - Point Cloud Data file format
VERSION 0.7
FIELDS x y z rgba
SIZE 4 4 4 4
TYPE F F F U
COUNT 1 1 1 1
WIDTH 1033
HEIGHT 1
VIEWPOINT 0 0 0 1 0 0 0
POINTS 1033
DATA ascii
-0.0078012496 0.048485257 -0.024729004 13377280
-0.0033195559 0.048643447 -0.025394563 13377280
0.0027160002 0.048674908 -0.025382459 13377280
0.0078012496 0.048485253 -0.024729004 13377280
-0.018637 -0.048315 -0.018529 13377280
-0.014358055 -0.048984773 -0.020343665 13377280
-0.0086766025 -0.050005399 -0.021034794 13377280
-0.0031129005 -0.050668459 -0.021034796 13377280
0.0024903202 -0.050691418 -0.021034796 13377280
0.0086766025 -0.050005399 -0.0210348 13377280
0.014358055 -0.048984781 -0.020343667 13377280
0.018637 -0.048315 -0.018529 13377280
-0.026450764 -0.043546718 -0.020559283 13377280
-0.021105267 -0.046087123 -0.021179877 13377280
-0.015970498 -0.047354877 -0.022899874 13377280
0.015970498 -0.047354873 -0.022899872 13377280
0.021105222 -0.046087123 -0.021179877 13377280
0.026450768 -0.043546721 -0.020559285 13377280
-0.036451504 -0.036451504 -0.0191615 13377280
-0.032872818 -0.038727921 -0.020901458 13377280
-0.028939631 -0.041091125 -0.022281375 13377280
0.028939629 -0.041091129 -0.022281373 13377280
0.032872822 -0.038727932 -0.020901455 13377280
0.0364515 -0.0364515 -0.0191615 13377280
-0.038727753 -0.032872934 -0.020901466 13377280
-0.035547666 -0.035547666 -0.022283664 13377280
0.035547666 -0.035547666 -0.022283666 13377280
0.038727704 -0.0328729 -0.020901466 13377280
-0.043546632 -0.026450768 -0.020559285 13377280
-0.041091003 -0.028939756 -0.022281375 13377280
0.041090999 -0.028939756 -0.022281373 13377280
0.04354658 -0.026450764 -0.020559285 13377280
-0.048315 -0.018637 -0.018529 13377280
-0.046087045 -0.02110534 -0.021179873 13377280
0.046087004 -0.021105338 -0.021179875 13377280
0.048315 -0.018637 -0.018529 13377280
-0.04898471 -0.014358277 -0.020343667 13377280
-0.04735475 -0.01597075 -0.022899872 13377280
0.047354758 -0.01597075 -0.02289987 13377280
0.048984721 -0.014358331 -0.020343669 13377280
-0.050005242 -0.0086767627 -0.021034796 13377280
0.050005212 -0.0086767599 -0.021034796 13377280
-0.050668411 -0.0031129499 -0.021034794 13377280
0.050668407 -0.0031129504 -0.021034796 13377280
-0.050691362 0.0024902408 -0.021034792 13377280
0.05069137 0.0024902003 -0.021034792 13377280
-0.050005209 0.0086766025 -0.0210348 13377280
0.050005175 0.0086766034 -0.021034794 13377280
-0.048984718 0.014357997 -0.020343671 13377280
-0.047354747 0.015970375 -0.022899872 13377280
0.047354754 0.015970374 -0.02289987 13377280
0.04898471 0.014357997 -0.020343669 13377280
-0.048315 0.018637 -0.018529 13377280
-0.046087001 0.021105113 -0.021179881 13377280
0.046086971 0.021105113 -0.021179885 13377280
0.048315 0.018637 -0.018529 13377280
-0.043546576 0.02645072 -0.020559279 13377280
-0.041090999 0.028939633 -0.022281375 13377280
0.041091003 0.028939629 -0.022281375 13377280
0.043546569 0.026450619 -0.020559279 13377280
-0.038727719 0.032872722 -0.020901458 13377280
-0.035547666 0.035546999 -0.022283666 13377280
0.035547663 0.035546999 -0.022283666 13377280
0.038727697 0.032872677 -0.020901462 13377280
-0.036451504 0.036451504 -0.0191615 13377280
-0.032872789 0.038727637 -0.02090146 13377280
-0.028939629 0.041090876 -0.022281373 13377280
0.028939633 0.04109088 -0.022281373 13377280
0.032872792 0.038727608 -0.020901453 13377280
0.036451504 0.036451001 -0.019161502 13377280
-0.026450705 0.043546427 -0.020559285 13377280
-0.021105187 0.046086844 -0.021179875 13377280
-0.015970498 0.047354624 -0.02289987 13377280
0.0159705 0.04735462 -0.022899874 13377280
0.021105191 0.046086844 -0.021179888 13377280
0.026450709 0.043546416 -0.02055929 13377280
-0.018637 0.048315 -0.018529 13377280
-0.014357999 0.048984561 -0.020343669 13377280
-0.0086766025 0.050004993 -0.0210348 13377280
-0.0031129003 0.050668202 -0.021034796 13377280
0.0024903202 0.050691117 -0.021034796 13377280
0.0086766044 0.050004963 -0.021034796 13377280
0.014358001 0.048984561 -0.020343663 13377280
0.018637 0.048315 -0.018529 13377280
-0.020394295 -0.049031168 -0.014124411 13377280
-0.015256003 -0.050670121 -0.014768957 13377280
-0.0090513192 -0.052164689 -0.0146602 13377280
-0.0032474503 -0.052856497 -0.014660202 13377280
0.0025979602 -0.052880395 -0.014660196 13377280
0.0090513201 -0.052164689 -0.0146602 13377280
0.015255962 -0.050670087 -0.014768955 13377280
0.020394294 -0.049031168 -0.014124413 13377280
-0.031367179 -0.042884991 -0.014069452 13377280
-0.027099894 -0.045508742 -0.014559809 13377280
-0.022953123 -0.047389373 -0.015798748 13377280
0.022953125 -0.047389377 -0.015798748 13377280
0.027099848 -0.04550875 -0.014559804 13377280
0.031367183 -0.042884998 -0.014069453 13377280
-0.037504762 -0.037504885 -0.014353117 13377280
-0.033951502 -0.040457003 -0.015166223 13377280
0.033951506 -0.040456995 -0.015166225 13377280
0.037504707 -0.037504885 -0.014353119 13377280
-0.042884901 -0.031367272 -0.014069453 13377280
-0.040457007 -0.033951562 -0.015166223 13377280
0.040457007 -0.033951562 -0.015166223 13377280
0.042884901 -0.031367268 -0.01406945 13377280
-0.04550859 -0.027099887 -0.014559804 13377280
0.04550859 -0.027099894 -0.014559804 13377280
-0.049031109 -0.020394295 -0.014124411 13377280
-0.047389377 -0.02295325 -0.015798749 13377280
0.047389384 -0.022953251 -0.015798749 13377280
0.04903106 -0.020394297 -0.014124413 13377280
-0.05066986 -0.015256085 -0.014768955 13377280
0.050669868 -0.015256084 -0.014768954 13377280
-0.052164521 -0.0090514775 -0.0146602 13377280
0.052164532 -0.0090514794 -0.014660196 13377280
-0.052856248 -0.0032475002 -0.0146602 13377280
0.052856255 -0.0032475006 -0.0146602 13377280
-0.052880205 0.0025978407 -0.014660198 13377280
0.052880198 0.00259784 -0.014660197 13377280
-0.052164521 0.0090513183 -0.014660196 13377280
0.052164521 0.0090513183 -0.014660198 13377280
-0.050669875 0.015255877 -0.014768955 13377280
0.050669875 0.015255831 -0.014768954 13377280
-0.049030989 0.02039423 -0.014124409 13377280
-0.047389377 0.022952871 -0.015798749 13377280
0.047389377 0.022952873 -0.015798749 13377280
0.049031049 0.02039423 -0.014124412 13377280
-0.045508556 0.027099686 -0.014559807 13377280
0.04550859 0.027099691 -0.014559804 13377280
-0.042884901 0.03136709 -0.014069454 13377280
-0.040456939 0.033951502 -0.015166223 13377280
0.040456947 0.033951506 -0.015166227 13377280
0.042884905 0.031367097 -0.014069452 13377280
-0.037504703 0.037504703 -0.014353118 13377280
-0.03395151 0.040456772 -0.015166225 13377280
0.033951502 0.040456727 -0.015166225 13377280
0.037504699 0.037504703 -0.014353119 13377280
-0.031367093 0.042884901 -0.014069456 13377280
-0.027099762 0.045508485 -0.014559807 13377280
-0.022953125 0.04738912 -0.015798749 13377280
0.022953125 0.047389247 -0.015798749 13377280
0.027099777 0.045508508 -0.014559805 13377280
0.03136709 0.042884808 -0.014069456 13377280
-0.020394294 0.049030937 -0.01412441 13377280
-0.015255917 0.050669696 -0.014768955 13377280
-0.0090513192 0.052164447 -0.014660197 13377280
-0.00324735 0.052856199 -0.0146602 13377280
0.0025979208 0.052880086 -0.014660196 13377280
0.0090513192 0.052164406 -0.014660195 13377280
0.01525592 0.050669715 -0.014768957 13377280
0.020394295 0.049030937 -0.014124414 13377280
-0.0066820001 -0.054175999 -0.0067329998 13377280
-0.0031545453 -0.054302357 -0.007947363 13377280
0.0024784997 -0.054322064 -0.0079733562 13377280
0.0066820001 -0.054175999 -0.0067329998 13377280
-0.024670999 -0.048416603 -0.0083338004 13377280
-0.020759998 -0.050119452 -0.0087339981 13377280
-0.015112684 -0.052113939 -0.008733999 13377280
-0.0094108945 -0.053411905 -0.0088393139 13377280
-0.0037076003 -0.053843401 -0.010464599 13377280
0.0030896666 -0.053859994 -0.010508833 13377280
0.0094107892 -0.053411897 -0.0088393157 13377280
0.015112686 -0.052113935 -0.0087339981 13377280
0.020759998 -0.0501194 -0.0087339999 13377280
0.024670999 -0.048416603 -0.0083338004 13377280
-0.032220528 -0.043706894 -0.0084598213 13377280
-0.027587252 -0.046674501 -0.0089838114 13377280
0.027587254 -0.046674564 -0.0089838114 13377280
0.032220531 -0.043706886 -0.0084598232 13377280
-0.038359508 -0.038359664 -0.008733999 13377280
-0.035069831 -0.041333329 -0.0091781672 13377280
0.035069827 -0.041333329 -0.0091781663 13377280
0.038359508 -0.038359657 -0.0087339999 13377280
-0.043706886 -0.032220531 -0.0084598241 13377280
-0.041332837 -0.035069998 -0.0091781672 13377280
0.041332837 -0.035069998 -0.0091781672 13377280
0.043706901 -0.032220524 -0.0084598213 13377280
-0.048416603 -0.024670999 -0.0083338004 13377280
-0.046674363 -0.027587442 -0.0089838114 13377280
0.046674371 -0.02758744 -0.0089838114 13377280
0.048416596 -0.024670999 -0.0083338004 13377280
-0.050119203 -0.020760102 -0.008733999 13377280
0.050119203 -0.020760095 -0.0087339999 13377280
-0.052113686 -0.015112811 -0.008733999 13377280
0.052113689 -0.015112812 -0.0087339981 13377280
-0.054175999 -0.0066820001 -0.0067329998 13377280
-0.053411841 -0.0094108973 -0.0088393167 13377280
0.053411849 -0.0094108954 -0.0088393148 13377280
0.054175999 -0.0066820001 -0.0067329998 13377280
-0.054302171 -0.0031547279 -0.0079473639 13377280
-0.053843003 -0.0037076003 -0.010464599 13377280
0.053842999 -0.0037076001 -0.010464599 13377280
0.054302178 -0.0031547276 -0.007947363 13377280
-0.054321844 0.0024783572 -0.0079733562 13377280
-0.053859666 0.0030895004 -0.010508833 13377280
0.053859666 0.0030894999 -0.010508833 13377280
0.054321855 0.0024784287 -0.0079733552 13377280
-0.054175999 0.0066820001 -0.0067329998 13377280
-0.053411834 0.009410738 -0.0088393157 13377280
0.053411793 0.0094107371 -0.0088393148 13377280
0.054175999 0.0066820001 -0.0067329998 13377280
-0.052113693 0.015112623 -0.008733999 13377280
0.052113689 0.015112622 -0.0087339999 13377280
-0.050119154 0.020760003 -0.008733999 13377280
0.050119199 0.020759996 -0.008733999 13377280
-0.048416596 0.024670802 -0.0083338004 13377280
-0.046674371 0.027587125 -0.0089838095 13377280
0.046674367 0.027587062 -0.0089838104 13377280
0.048416402 0.024670802 -0.0083337994 13377280
-0.043706819 0.032220416 -0.0084598213 13377280
-0.041332833 0.035069834 -0.0091781681 13377280
0.041332837 0.035069831 -0.0091781672 13377280
0.043706827 0.032220405 -0.0084598213 13377280
-0.038359411 0.038359359 -0.0087339999 13377280
-0.035069827 0.041332837 -0.0091781672 13377280
0.035069827 0.041332833 -0.0091781663 13377280
0.0383594 0.038359366 -0.0087340008 13377280
-0.032220535 0.043706771 -0.0084598223 13377280
-0.027587252 0.046674315 -0.0089838104 13377280
0.02758725 0.046674248 -0.0089838114 13377280
0.032220531 0.043706771 -0.0084598223 13377280
-0.024671001 0.048416406 -0.0083338004 13377280
-0.02076 0.050118946 -0.0087340008 13377280
-0.015112688 0.05211363 -0.0087339971 13377280
-0.0094107389 0.053411733 -0.0088393167 13377280
-0.0037076001 0.053842794 -0.010464599 13377280
0.0030896666 0.053859502 -0.010508833 13377280
0.0094107371 0.053411748 -0.0088393148 13377280
0.015112684 0.052113563 -0.008733999 13377280
0.02076 0.050118893 -0.008733999 13377280
0.024670999 0.048416406 -0.0083338004 13377280
-0.0066820001 0.054175999 -0.0067329998 13377280
-0.0031544545 0.054302085 -0.0079473639 13377280
0.0024785001 0.054321643 -0.0079733552 13377280
0.0066820001 0.054175999 -0.0067329998 13377280
-0.0079315454 -0.054302372 -0.0031879095 13377280
-0.0033636873 -0.054752246 -0.0033715002 13377280
0.0026908997 -0.054776996 -0.0033714995 13377280
0.0079313628 -0.054302361 -0.0031879095 13377280
-0.025270753 -0.048706375 -0.0033715004 13377280
-0.020987503 -0.050668467 -0.003371499 13377280
-0.014766109 -0.052827522 -0.0032652104 13377280
-0.010695669 -0.053770322 -0.0040446678 13377280
0.010695667 -0.053770334 -0.0040446678 13377280
0.014766001 -0.052827533 -0.0032652104 13377280
0.020987455 -0.050668459 -0.003371499 13377280
0.025270753 -0.048706375 -0.0033715006 13377280
-0.032669954 -0.044050347 -0.003371499 13377280
-0.02820625 -0.047059234 -0.0033715004 13377280
0.028206244 -0.047059242 -0.0033715004 13377280
0.032669943 -0.04405034 -0.0033714995 13377280
-0.038779795 -0.038779855 -0.0033714999 13377280
-0.035843503 -0.041552752 -0.0033714999 13377280
0.035843503 -0.041552756 -0.0033715004 13377280
0.038779806 -0.038779851 -0.0033714999 13377280
-0.044050295 -0.032669995 -0.0033714999 13377280
-0.041552506 -0.035843506 -0.0033714999 13377280
0.041552499 -0.035843503 -0.0033714999 13377280
0.044050302 -0.032669999 -0.0033714995 13377280
-0.048706248 -0.025270753 -0.0033715006 13377280
-0.04705907 -0.028206246 -0.0033715004 13377280
0.047059085 -0.02820625 -0.0033715006 13377280
0.048706241 -0.025270749 -0.0033715004 13377280
-0.050668359 -0.0209876 -0.0033714995 13377280
0.050668407 -0.020987602 -0.0033714995 13377280
-0.052827422 -0.014766214 -0.0032652102 13377280
0.052827384 -0.014766216 -0.0032652107 13377280
-0.054302182 -0.0079316357 -0.003187909 13377280
-0.053769995 -0.010695667 -0.0040446674 13377280
0.053769991 -0.010695667 -0.0040446674 13377280
0.054302178 -0.0079316357 -0.0031879095 13377280
-0.054752048 -0.0033638121 -0.0033714999 13377280
0.054752059 -0.0033638126 -0.0033715004 13377280
-0.054776847 0.0026908501 -0.0033714999 13377280
0.05477684 0.0026908501 -0.0033714995 13377280
-0.054302182 0.0079312725 -0.0031879095 13377280
-0.053769991 0.010695501 -0.0040446674 13377280
0.053770002 0.010695501 -0.0040446674 13377280
0.054302171 0.0079311812 -0.003187909 13377280
-0.052827366 0.014765843 -0.0032652107 13377280
0.052827369 0.014765847 -0.0032652104 13377280
-0.050668351 0.020987401 -0.0033714995 13377280
0.050668359 0.020987352 -0.003371499 13377280
-0.048706248 0.02527063 -0.0033715006 13377280
-0.047058985 0.02820608 -0.0033715004 13377280
0.047058985 0.028206078 -0.0033715006 13377280
0.048706245 0.025270626 -0.0033715004 13377280
-0.044050202 0.032669947 -0.0033714995 13377280
-0.041552499 0.035843249 -0.0033714999 13377280
0.041552499 0.035843249 -0.0033715004 13377280
0.044050198 0.032669943 -0.0033714988 13377280
-0.038779799 0.03877975 -0.003371499 13377280
-0.035843503 0.041552503 -0.0033714999 13377280
0.035843499 0.041552499 -0.0033715004 13377280
0.03877981 0.038779762 -0.0033714988 13377280
-0.03266995 0.044050194 -0.0033714988 13377280
-0.028206168 0.047058996 -0.0033715004 13377280
0.028206164 0.047058988 -0.0033715004 13377280
0.032669954 0.044050194 -0.0033714999 13377280
-0.025270753 0.048706252 -0.0033715006 13377280
-0.020987401 0.050668169 -0.0033714983 13377280
-0.014766003 0.052827269 -0.0032652104 13377280
-0.010695667 0.053769831 -0.0040446674 13377280
0.010695667 0.053769831 -0.0040446674 13377280
0.014766001 0.052827213 -0.0032652107 13377280
0.020987401 0.050668217 -0.0033714999 13377280
0.025270751 0.048706248 -0.0033715006 13377280
-0.0079313628 0.054301914 -0.0031879097 13377280
-0.003363624 0.054751925 -0.0033715002 13377280
0.0026908997 0.054776687 -0.0033714995 13377280
0.0079313628 0.054301992 -0.0031879097 13377280
-0.0079609286 -0.054322064 0.0025047862 13377280
-0.0033652005 -0.054776996 0.0026972 13377280
0.0026921597 -0.054801751 0.0026971996 13377280
0.0079607861 -0.054322071 0.0025047862 13377280
-0.025282208 -0.0487285 0.0026972005 13377280
-0.020997005 -0.0506914 0.0026971989 13377280
-0.014744122 -0.052858438 0.0025849582 13377280
-0.010700571 -0.053794857 0.0034668576 13377280
0.010700569 -0.053795006 0.0034668576 13377280
0.014744039 -0.052858453 0.0025849582 13377280
0.02099696 -0.050691403 0.0026971994 13377280
0.025282204 -0.048728503 0.0026972005 13377280
-0.032684758 -0.044070277 0.0026971996 13377280
-0.028219055 -0.047080517 0.0026972003 13377280
0.028219003 -0.047080513 0.0026972 13377280
0.032684758 -0.044070281 0.0026972003 13377280
-0.038797364 -0.038797442 0.0026971994 13377280
-0.035859797 -0.041571606 0.0026972 13377280
0.035859801 -0.041571606 0.0026972 13377280
0.038797364 -0.038797438 0.0026971996 13377280
-0.044070195 -0.032684807 0.0026971996 13377280
-0.041571401 -0.035859793 0.0026972 13377280
0.041571401 -0.035859801 0.0026972 13377280
0.044070244 -0.032684833 0.0026971996 13377280
-0.048728302 -0.0252822 0.0026972005 13377280
-0.04708039 -0.028219068 0.0026972005 13377280
0.047080394 -0.028219065 0.0026972003 13377280
0.048728295 -0.0252822 0.0026972005 13377280
-0.050691284 -0.020997079 0.0026971987 13377280
0.050691362 -0.020997083 0.0026971996 13377280
-0.052858334 -0.014744206 0.0025849582 13377280
0.052858334 -0.014744207 0.0025849582 13377280
-0.054321777 -0.0079609994 0.0025047862 13377280
-0.053794708 -0.010700571 0.0034668578 13377280
0.053794716 -0.01070057 0.0034668576 13377280
0.054321837 -0.0079609985 0.0025047865 13377280
-0.05477684 -0.0033653497 0.0026972 13377280
0.05477684 -0.0033653497 0.0026972003 13377280
-0.054801628 0.0026921197 0.0026971996 13377280
0.054801635 0.0026921201 0.0026971994 13377280
-0.054321777 0.0079607135 0.0025047862 13377280
-0.053794716 0.010700429 0.0034668576 13377280
0.053794708 0.010700429 0.0034668576 13377280
0.054321848 0.007960571 0.0025047862 13377280
-0.052858341 0.014743832 0.0025849584 13377280
0.052858323 0.014743834 0.0025849582 13377280
-0.050691199 0.020996843 0.0026971998 13377280
0.050691295 0.02099688 0.0026971996 13377280
-0.048728302 0.025282104 0.0026972005 13377280
-0.047080323 0.028218867 0.0026972 13377280
0.047080331 0.028218871 0.0026972005 13377280
0.048728302 0.025282104 0.0026972003 13377280
-0.044070113 0.03268468 0.0026971994 13377280
-0.041571401 0.035859395 0.0026971998 13377280
0.041571401 0.035859399 0.0026972 13377280
0.044070154 0.032684676 0.0026971996 13377280
-0.038797364 0.038797326 0.0026971994 13377280
-0.035859801 0.041571207 0.0026972 13377280
0.035859801 0.041571204 0.0026972 13377280
0.038797371 0.038797323 0.0026971996 13377280
-0.03268468 0.044070113 0.0026971996 13377280
-0.028218934 0.047080323 0.0026972005 13377280
0.028218938 0.047080327 0.0026972003 13377280
0.032684706 0.044070121 0.0026971996 13377280
-0.025282204 0.048728298 0.0026972003 13377280
-0.020996919 0.050691083 0.0026971994 13377280
-0.014744043 0.052858263 0.0025849582 13377280
-0.010700569 0.053794574 0.0034668578 13377280
0.010700571 0.053794574 0.0034668576 13377280
0.014744041 0.052858215 0.0025849584 13377280
0.020996921 0.050691083 0.0026971996 13377280
0.0252822 0.048728295 0.0026972003 13377280
-0.0079607861 0.054321568 0.0025047862 13377280
-0.0033651995 0.054776676 0.0026972 13377280
0.00269216 0.054801464 0.0026971989 13377280
0.0079607842 0.054321643 0.0025047862 13377280
-0.0066820001 -0.054175999 0.0067329998 13377280
-0.003154546 -0.054302361 0.0079473639 13377280
0.0024785004 -0.054322071 0.0079733562 13377280
0.0066820001 -0.054175999 0.0067329998 13377280
-0.024670999 -0.0484166 0.0083338004 13377280
-0.020759998 -0.050119448 0.0087339999 13377280
-0.015112685 -0.052113935 0.008733999 13377280
-0.0094108451 -0.05341189 0.0088393139 13377280
-0.0037075996 -0.05384339 0.010464599 13377280
0.0030896671 -0.053859998 0.010508833 13377280
0.0094107911 -0.053411897 0.0088393157 13377280
0.015112687 -0.052113932 0.008733999 13377280
0.020759994 -0.0501194 0.0087339999 13377280
0.024670999 -0.048416596 0.0083338004 13377280
-0.032220524 -0.04370689 0.0084598223 13377280
-0.027587254 -0.046674497 0.0089838114 13377280
0.027587248 -0.046674497 0.0089838132 13377280
0.032220524 -0.043706886 0.0084598213 13377280
-0.038359504 -0.038359661 0.008733999 13377280
-0.035069831 -0.041333329 0.0091781672 13377280
0.035069827 -0.041333161 0.0091781672 13377280
0.038359448 -0.038359612 0.0087339981 13377280
-0.043706898 -0.032220531 0.0084598213 13377280
-0.041332837 -0.035069998 0.0091781672 13377280
0.04133283 -0.035069998 0.0091781672 13377280
0.043706886 -0.032220535 0.0084598241 13377280
-0.048416607 -0.024670999 0.0083338004 13377280
-0.046674378 -0.027587438 0.0089838114 13377280
0.046674374 -0.027587438 0.0089838123 13377280
0.0484166 -0.024671001 0.0083338004 13377280
-0.05011921 -0.020760104 0.008733999 13377280
0.05011921 -0.0207601 0.008733999 13377280
-0.052113693 -0.015112814 0.0087339981 13377280
0.052113697 -0.015112813 0.0087339981 13377280
-0.054175999 -0.0066820001 0.0067329998 13377280
-0.053411841 -0.0094108945 0.0088393157 13377280
0.053411793 -0.0094108973 0.0088393139 13377280
0.054175999 -0.0066820001 0.0067329998 13377280
-0.054302178 -0.0031547272 0.007947363 13377280
-0.053843003 -0.0037076001 0.010464599 13377280
0.053842999 -0.0037076001 0.010464599 13377280
0.054302178 -0.0031547272 0.0079473639 13377280
-0.054321833 0.0024784287 0.0079733562 13377280
-0.053859666 0.0030895004 0.010508833 13377280
0.053859666 0.0030895004 0.010508833 13377280
0.054321855 0.0024783572 0.0079733562 13377280
-0.054175999 0.0066820001 0.0067329998 13377280
-0.053411834 0.0094107371 0.0088393167 13377280
0.053411797 0.009410738 0.0088393129 13377280
0.054175999 0.0066820001 0.0067329998 13377280
-0.052113693 0.015112624 0.008733999 13377280
0.052113693 0.015112625 0.0087339981 13377280
-0.050119154 0.020760002 0.0087339981 13377280
0.050119203 0.020760003 0.008733999 13377280
-0.048416596 0.0246708 0.0083338004 13377280
-0.046674378 0.027587127 0.0089838104 13377280
0.046674371 0.027587058 0.0089838114 13377280
0.048416406 0.0246708 0.0083338004 13377280
-0.043706827 0.032220405 0.0084598223 13377280
-0.041332833 0.035069827 0.0091781672 13377280
0.041332837 0.035069834 0.0091781681 13377280
0.043706834 0.032220408 0.0084598213 13377280
-0.038359355 0.038359355 0.008733999 13377280
-0.035069827 0.041332833 0.0091781663 13377280
0.035069827 0.041332837 0.0091781663 13377280
0.038359396 0.038359307 0.0087340008 13377280
-0.032220528 0.043706767 0.0084598223 13377280
-0.02758725 0.046674311 0.0089838123 13377280
0.027587252 0.046674244 0.0089838123 13377280
0.032220528 0.043706767 0.0084598223 13377280
-0.024670999 0.048416406 0.0083338004 13377280
-0.020759996 0.050118953 0.0087339999 13377280
-0.015112685 0.052113622 0.0087339981 13377280
-0.009410738 0.053411748 0.0088393167 13377280
-0.0037076001 0.053842802 0.010464599 13377280
0.0030896666 0.053859491 0.010508833 13377280
0.0094107399 0.053411692 0.0088393148 13377280
0.015112686 0.052113563 0.0087339981 13377280
0.020759998 0.050118845 0.0087340008 13377280
0.024670998 0.048416402 0.0083338004 13377280
-0.0066820001 0.054175999 0.0067329998 13377280
-0.0031544545 0.054302093 0.007947363 13377280
0.0024785001 0.054321643 0.0079733552 13377280
0.0066820001 0.054175999 0.0067329998 13377280
-0.020394295 -0.049031168 0.014124822 13377280
-0.015256 -0.050669998 0.014769334 13377280
-0.0090513173 -0.052164651 0.014660594 13377280
-0.0032474506 -0.052856348 0.014660602 13377280
0.0025979199 -0.052880298 0.014660602 13377280
0.0090513192 -0.052164678 0.014660602 13377280
0.015255959 -0.050670031 0.014769328 13377280
0.020394294 -0.049031172 0.014124819 13377280
-0.031367179 -0.042884998 0.014069816 13377280
-0.027099809 -0.04550875 0.014560227 13377280
-0.022953127 -0.047389381 0.015799128 13377280
0.022953125 -0.047389373 0.015799126 13377280
0.02709977 -0.045508742 0.014560228 13377280
0.031367183 -0.042884998 0.014069814 13377280
-0.037504703 -0.037504882 0.014353585 13377280
-0.033951499 -0.040456992 0.015166607 13377280
0.033951506 -0.040456995 0.01516661 13377280
0.037504703 -0.037504822 0.014353584 13377280
-0.042884909 -0.031367272 0.014069814 13377280
-0.040456943 -0.033951562 0.015166609 13377280
0.040456999 -0.033951562 0.015166606 13377280
0.042884909 -0.031367268 0.014069816 13377280
-0.04550859 -0.027099885 0.014560229 13377280
0.045508597 -0.027099889 0.014560226 13377280
-0.049031056 -0.020394294 0.014124822 13377280
-0.047389381 -0.022953127 0.015799128 13377280
0.047389373 -0.022953251 0.015799126 13377280
0.049031049 -0.020394292 0.014124821 13377280
-0.050669778 -0.015256084 0.014769328 13377280
0.050669882 -0.015256084 0.014769342 13377280
-0.052164484 -0.0090514794 0.014660596 13377280
0.052164532 -0.0090514831 0.014660594 13377280
-0.052856244 -0.0032475006 0.0146606 13377280
0.052856255 -0.0032474503 0.014660594 13377280
-0.052880183 0.0025978405 0.014660594 13377280
0.052880205 0.0025978405 0.014660598 13377280
-0.05216445 0.009051322 0.014660597 13377280
0.052164517 0.0090513201 0.014660597 13377280
-0.050669786 0.015255791 0.01476933 13377280
0.050669868 0.01525583 0.014769334 13377280
-0.049030941 0.020394232 0.01412482 13377280
-0.047389373 0.022952871 0.015799126 13377280
0.04738925 0.022952871 0.015799126 13377280
0.049030989 0.020394234 0.014124821 13377280
-0.045508564 0.027099695 0.014560233 13377280
0.045508549 0.027099695 0.014560224 13377280
-0.042884901 0.031367097 0.014069816 13377280
-0.040456884 0.03395145 0.015166607 13377280
0.040456891 0.03395145 0.015166612 13377280
0.042884901 0.031367097 0.014069817 13377280
-0.037504703 0.037504703 0.014353585 13377280
-0.033951506 0.040456675 0.015166607 13377280
0.033951506 0.040456623 0.015166609 13377280
0.037504703 0.03750471 0.014353584 13377280
-0.031367093 0.042884819 0.014069816 13377280
-0.027099766 0.045508485 0.014560228 13377280
-0.022953123 0.04738912 0.015799126 13377280
0.022953125 0.047389124 0.015799126 13377280
0.027099766 0.045508482 0.014560233 13377280
0.031367093 0.042884815 0.014069817 13377280
-0.020394288 0.049030934 0.014124818 13377280
-0.015255918 0.0506697 0.014769326 13377280
-0.0090513201 0.052164387 0.014660596 13377280
-0.0032473509 0.052856099 0.014660597 13377280
0.0025979206 0.052880093 0.014660604 13377280
0.0090513201 0.052164365 0.014660598 13377280
0.015255916 0.0506697 0.014769328 13377280
0.020394294 0.04903093 0.014124819 13377280
-0.018637 -0.048315 0.018529 13377280
-0.014358052 -0.04898477 0.020343725 13377280
-0.0086766006 -0.050005399 0.021034991 13377280
-0.0031129005 -0.050668459 0.021034997 13377280
0.0024903207 -0.050691403 0.021035001 13377280
0.0086766006 -0.050005402 0.021034993 13377280
0.014357999 -0.04898477 0.020343727 13377280
0.018637 -0.048315 0.018529 13377280
-0.026450763 -0.043546665 0.020559426 13377280
-0.021105226 -0.04608712 0.021180065 13377280
-0.015970496 -0.047354877 0.022900503 13377280
0.015970498 -0.047354877 0.022900503 13377280
0.021105193 -0.046087112 0.021180071 13377280
0.026450716 -0.043546669 0.020559432 13377280
-0.0364515 -0.0364515 0.0191615 13377280
-0.032872792 -0.038727812 0.020901641 13377280
-0.028939629 -0.041090995 0.022281749 13377280
0.028939629 -0.041091003 0.022281751 13377280
0.032872792 -0.038727846 0.020901648 13377280
0.0364515 -0.0364515 0.0191615 13377280
-0.038727712 -0.032872852 0.020901637 13377280
-0.035547666 -0.035547666 0.022283999 13377280
0.035547666 -0.035547666 0.022283999 13377280
0.038727704 -0.032872893 0.020901641 13377280
-0.043546576 -0.02645077 0.020559428 13377280
-0.041091003 -0.028939754 0.022281751 13377280
0.041090999 -0.028939754 0.022281749 13377280
0.043546565 -0.026450759 0.02055943 13377280
-0.048315 -0.018637 0.018529 13377280
-0.046087001 -0.021105342 0.021180073 13377280
0.046087019 -0.02110534 0.021180077 13377280
0.048315 -0.018637 0.018529 13377280
-0.048984718 -0.014358222 0.020343719 13377280
-0.047354747 -0.015970625 0.022900501 13377280
0.04735475 -0.015970623 0.022900501 13377280
0.048984718 -0.014358333 0.020343725 13377280
-0.050005168 -0.0086767608 0.021034997 13377280
0.050005168 -0.0086767618 0.021034997 13377280
-0.050668359 -0.0031129506 0.021034999 13377280
0.050668366 -0.0031129508 0.021034997 13377280
-0.050691333 0.0024902404 0.021034993 13377280
0.050691314 0.0024901999 0.021034993 13377280
-0.05000516 0.0086765997 0.021034993 13377280
0.050005164 0.0086766025 0.021034997 13377280
-0.048984606 0.014357999 0.020343728 13377280
-0.047354624 0.015970374 0.022900501 13377280
0.047354624 0.015970375 0.022900501 13377280
0.048984602 0.014357943 0.020343713 13377280
-0.048315 0.018637 0.018529 13377537
-0.046086926 0.021105111 0.021180071 13377280
0.046086933 0.021105111 0.021180073 13377280
0.048315 0.018637 0.018529 13377280
-0.043546479 0.026450623 0.020559426 13377280
-0.041091003 0.028939627 0.022281753 13377280
0.041091003 0.028939506 0.022281753 13377280
0.043546539 0.026450617 0.020559428 13377280
-0.038727637 0.032872632 0.020901645 13377280
-0.035547666 0.035546999 0.022283999 13377280
0.035547327 0.035546999 0.022283999 13377280
0.038727708 0.032872643 0.020901646 13377280
-0.036451504 0.036451001 0.0191615 13377280
-0.0328728 0.038727604 0.020901639 13377280
-0.028939629 0.04109088 0.022281749 13377280
0.028939627 0.041090745 0.022281751 13377280
0.032872789 0.038727615 0.020901637 13377280
0.036451504 0.036451001 0.0191615 13377280
-0.02645071 0.043546382 0.020559426 13377280
-0.021105144 0.046086811 0.021180075 13377280
-0.015970498 0.047354497 0.022900503 13377280
0.015970498 0.04735462 0.022900503 13377280
0.021105191 0.046086844 0.021180077 13377280
0.02645071 0.043546431 0.020559426 13377280
-0.018637 0.048315 0.018529 13377280
-0.014357997 0.048984569 0.020343719 13377280
-0.0086766025 0.050004914 0.021035008 13377280
-0.0031129001 0.050668173 0.021034997 13377280
0.0024903202 0.050691113 0.021034993 13377280
0.0086765997 0.050004877 0.021035004 13377280
0.014357999 0.048984557 0.020343719 13377280
0.018637 0.048315 0.018529 13377280
-0.0078015001 -0.048485503 0.024729004 13377280
-0.0033195554 -0.048643444 0.025394563 13377280
0.0027160002 -0.048675001 0.025382457 13377280
0.0078012506 -0.048485495 0.024729004 13377280
-0.024736 -0.042441502 0.024729 13377280
-0.020544991 -0.043426916 0.026668452 13377280
-0.015100421 -0.045290582 0.027182881 13377280
-0.009451271 -0.046672311 0.027415592 13377280
-0.0034676001 -0.047009729 0.02827001 13377537
0.0028896667 -0.047035709 0.028270006 13377280
0.009451272 -0.046672273 0.027415581 13377280
0.015100421 -0.045290597 0.027182877 13377280
0.020544998 -0.043426923 0.026668452 13377280
0.024736002 -0.042441506 0.024729 13377280
-0.031317998 -0.037219997 0.02562351 13377280
-0.027198093 -0.039207675 0.027221028 13377280
-0.022666859 -0.041009005 0.028765867 13377280
0.022666859 -0.041009005 0.028765867 13377280
0.027198102 -0.039207689 0.02722102 13377280
0.031318001 -0.037219994 0.02562351 13377280
-0.037219875 -0.031317998 0.025623508 13377280
-0.033615716 -0.03361582 0.027528655 13377280
-0.029478 -0.035920002 0.029425001 13377280
0.029478 -0.035920002 0.029425001 13377280
0.033615723 -0.033615813 0.027528645 13377280
0.037219878 -0.031317998 0.025623506 13377280
-0.042441498 -0.024736 0.024729 13377280
-0.039207578 -0.027198145 0.027221026 13377280
-0.035920002 -0.029479001 0.029425001 13377280
0.035920002 -0.029479001 0.029425001 13377280
0.03920757 -0.02719814 0.027221028 13377280
0.042441502 -0.024736 0.024729 13377280
-0.043426827 -0.020545138 0.026668459 13377280
-0.041008856 -0.022667002 0.028765867 13377280
0.041008856 -0.022667002 0.028765867 13377280
0.043426823 -0.02054514 0.026668452 13377280
-0.045290466 -0.01510042 0.027182879 13377280
0.045290507 -0.015100423 0.027182875 13377280
-0.048485257 -0.0078015006 0.024729004 13377280
-0.046672225 -0.0094513157 0.027415587 13377280
0.046672236 -0.0094513157 0.027415587 13377280
0.048485249 -0.0078015006 0.024729004 13377280
-0.04864344 -0.003319778 0.025394564 13377280
-0.04700939 -0.0034677996 0.028270008 13377280
0.04700939 -0.0034677996 0.028270008 13377280
0.048643444 -0.0033195557 0.025394563 13377280
-0.048674908 0.0027159089 0.025382459 13377280
-0.047035433 0.0028896111 0.028270006 13377280
0.047035441 0.0028895559 0.02827001 13377280
0.048674908 0.0027159089 0.025382459 13377280
-0.048485253 0.0078012496 0.024729004 13377280
-0.046672225 0.0094512245 0.02741559 13377280
0.046672229 0.0094512245 0.027415587 13377280
0.048485249 0.0078012501 0.024729004 13377280
-0.045290403 0.015100269 0.027182879 13377280
0.045290463 0.015100267 0.027182881 13377280
-0.043426722 0.020544814 0.026668454 13377280
-0.041008718 0.022666428 0.028765867 13377280
0.041008852 0.022666426 0.028765867 13377280
0.043426778 0.02054481 0.026668452 13377280
-0.042441502 0.024735503 0.024729 13377280
-0.039207391 0.027198073 0.027221028 13377280
-0.035918999 0.029478 0.029425001 13377280
0.035920002 0.029478 0.029425001 13377280
0.039207455 0.027198058 0.02722103 13377280
0.042441498 0.024735499 0.024729 13377280
-0.037219748 0.031317875 0.025623506 13377280
-0.033615489 0.033615477 0.027528655 13377280
-0.029478 0.035918999 0.029425001 13377280
0.029478 0.035918999 0.029425001 13377280
0.033615522 0.033615485 0.027528664 13377280
0.037219752 0.031317879 0.025623506 13377280
-0.031317879 0.037219752 0.025623506 13377280
-0.027198063 0.03920735 0.02722103 13377280
-0.022666717 0.041008569 0.028765867 13377280
0.022666859 0.041008573 0.028765867 13377280
0.027198058 0.039207362 0.027221026 13377280
0.031317875 0.037219752 0.025623508 13377280
-0.024735501 0.042441502 0.024729 13377280
-0.020544905 0.043426678 0.026668452 13377280
-0.01510031 0.04529025 0.027182885 13377280
-0.0094512692 0.046672139 0.027415587 13377280
-0.0034675996 0.04700933 0.028270008 13377280
0.0028896667 0.047035374 0.02827001 13377280
0.0094512692 0.046672139 0.02741559 13377280
0.015100383 0.045290276 0.027182877 13377280
0.020544957 0.043426678 0.026668454 13377280
0.024736 0.042441502 0.024729 13377280
-0.0078012506 0.048485249 0.024729004 13377280
-0.0033195557 0.048643332 0.025394564 13377280
0.002716 0.048674908 0.025382459 13377280
0.0078012506 0.048485253 0.024729004 13377280
-0.0144313 -0.042957701 0.031110603 13377280
-0.0088594332 -0.043543231 0.032324079 13377280
-0.0032459202 -0.044003833 0.032743599 13377280
0.0027049338 -0.044028208 0.032743599 13377280
0.0088593913 -0.043543234 0.032324087 13377280
0.014431301 -0.042957701 0.031110603 13377280
-0.025614165 -0.036999833 0.031568337 13377280
-0.020701904 -0.038746048 0.032974616 13377280
-0.01526903 -0.040140841 0.03426927 13377280
-0.0091516655 -0.041110586 0.035320155 13377280
-0.003062 -0.041509006 0.035924003 13377280
0.0025515 -0.041532002 0.035924006 13377280
0.0091515835 -0.041110668 0.035320159 13377280
0.015269036 -0.040140841 0.03426927 13377280
0.020701911 -0.038746092 0.032974634 13377280
0.025614249 -0.036999833 0.031568337 13377280
-0.031659469 -0.03165967 0.03187627 13377280
-0.027537165 -0.033334259 0.033886261 13377280
-0.022862831 -0.035142656 0.035580005 13377280
0.022862831 -0.035142664 0.035580005 13377280
0.027537173 -0.033334322 0.033886261 13377280
0.031659469 -0.031659603 0.031876266 13377280
-0.036999751 -0.025614331 0.031568337 13377280
-0.033334229 -0.02753726 0.033886272 13377280
-0.029448999 -0.029448999 0.035923999 13377280
0.029448999 -0.029448999 0.035923999 13377280
0.033334222 -0.027537256 0.033886272 13377280
0.036999751 -0.025614249 0.031568337 13377280
-0.038745902 -0.020702064 0.032974616 13377280
-0.035142664 -0.022863001 0.035580005 13377280
0.035142664 -0.022862995 0.035580005 13377280
0.038745906 -0.020702066 0.032974619 13377280
-0.042957608 -0.014431396 0.031110603 13377280
-0.040140726 -0.015269116 0.034269266 13377280
0.040140726 -0.015269147 0.03426927 13377280
0.042957596 -0.014431399 0.031110605 13377280
-0.043543153 -0.0088594779 0.032324076 13377280
-0.041110419 -0.009151916 0.035320159 13377280
0.041110504 -0.009151916 0.035320159 13377280
0.043543149 -0.0088595655 0.032324091 13377280
-0.044003796 -0.0032460399 0.032743603 13377280
-0.041508604 -0.003062 0.035924003 13377280
0.041508604 -0.003062 0.035924003 13377280
0.044003796 -0.0032460405 0.032743596 13377280
-0.044028137 0.0027048336 0.032743592 13377280
-0.041531671 0.0025515 0.035924006 13377280
0.041531671 0.0025515002 0.035924006 13377280
0.044028163 0.0027048336 0.032743596 13377280
-0.043543141 0.0088593904 0.032324079 13377280
-0.041110419 0.0091515016 0.035320152 13377280
0.041110426 0.0091514988 0.035320155 13377280
0.0435431 0.0088593913 0.032324079 13377280
-0.042957604 0.014431203 0.031110603 13377280
-0.040140685 0.01526896 0.034269273 13377280
0.040140722 0.015268957 0.034269277 13377280
0.042957611 0.014431196 0.0311106 13377280
-0.03874588 0.020701747 0.032974623 13377280
-0.035142496 0.022862665 0.035580005 13377280
0.035142332 0.022862665 0.035580005 13377280
0.038745873 0.020701777 0.032974612 13377280
-0.036999665 0.025614083 0.031568334 13377280
-0.033334222 0.027537135 0.033886261 13377280
-0.029448999 0.029448999 0.035923999 13377280
0.029448999 0.029448001 0.035923999 13377280
0.033334196 0.027537094 0.033886265 13377280
0.036999669 0.025614083 0.031568334 13377280
-0.031659268 0.031659134 0.031876273 13377280
-0.027537139 0.033334158 0.033886265 13377280
-0.022862665 0.035142165 0.035580005 13377280
0.022862667 0.035142168 0.035580005 13377280
0.027537173 0.033334192 0.033886265 13377280
0.031659272 0.031659137 0.03187627 13377280
-0.025614167 0.036999587 0.031568334 13377280
-0.020701883 0.03874578 0.032974631 13377280
-0.015268961 0.04014061 0.034269266 13377280
-0.0091515826 0.041110259 0.035320152 13377280
-0.0030618 0.041508604 0.035924003 13377280
0.0025516665 0.041531507 0.035924006 13377280
0.0091515826 0.041110259 0.035320155 13377280
0.015268961 0.040140655 0.034269266 13377280
0.020701878 0.03874578 0.032974612 13377280
0.025614159 0.036999587 0.031568334 13377280
-0.014431199 0.042957608 0.031110605 13377280
-0.0088593932 0.043542918 0.032324079 13377280
-0.0032459202 0.044003669 0.032743596 13377280
0.0027049331 0.04402807 0.032743596 13377280
0.0088593932 0.043543007 0.032324079 13377280
0.014431201 0.042957611 0.031110605 13377280
-0.018323001 -0.036401 0.036936 13377280
-0.014578597 -0.037225664 0.037722606 13377280
-0.0089832908 -0.03795426 0.038700227 13377280
-0.0033317662 -0.038690336 0.038867578 13377280
0.0028558287 -0.038715675 0.038867585 13377280
0.008983287 -0.037954252 0.038700216 13377280
0.014578599 -0.037225679 0.037722602 13377280
0.018323001 -0.036401 0.036936 13377280
-0.02551711 -0.031092998 0.037482899 13377280
-0.020793123 -0.032686368 0.038949244 13377280
-0.015342962 -0.033938482 0.040398482 13377280
-0.0092876386 -0.035044361 0.04132092 13377280
-0.0030796665 -0.035760831 0.041646 13377280
0.0026397144 -0.035784282 0.041646 13377280
0.0092876367 -0.035044357 0.041320916 13377280
0.015342968 -0.033938482 0.040398482 13377280
0.020793118 -0.032686342 0.038949236 13377280
0.025517112 -0.031092998 0.037482888 13377280
-0.03109289 -0.025517225 0.037482891 13377280
-0.026940612 -0.026940648 0.039574135 13377280
-0.022189397 -0.028862605 0.041196607 13377280
0.022189397 -0.028862601 0.041196611 13377280
0.026940586 -0.02694067 0.039574143 13377280
0.03109289 -0.025517218 0.037482891 13377280
-0.036401 -0.018323001 0.036936 13377280
-0.032686237 -0.020793237 0.038949244 13377280
-0.028862402 -0.022189399 0.041196607 13377280
0.028862406 -0.022189397 0.041196607 13377280
0.032686219 -0.020793242 0.03894924 13377280
0.036401 -0.018323001 0.036936 13377280
-0.037225675 -0.014578667 0.03772261 13377280
-0.033938322 -0.015343037 0.040398475 13377280
0.033938292 -0.015343039 0.040398482 13377280
0.037225671 -0.014578599 0.037722606 13377280
-0.037954114 -0.0089833606 0.038700216 13377280
-0.035044178 -0.0092876367 0.041320916 13377280
0.035044178 -0.0092876367 0.041320916 13377280
0.037954114 -0.0089833597 0.038700216 13377280
-0.038690221 -0.0033318992 0.038867589 13377280
-0.035760667 -0.0030796668 0.041646 13377280
0.035760663 -0.0030796661 0.041646 13377280
0.038690232 -0.0033318994 0.038867604 13377280
-0.038715549 0.002855713 0.038867559 13377280
-0.035784144 0.0026395717 0.041646 13377280
0.035784144 0.0026395714 0.041646 13377280
0.03871556 0.0028557135 0.038867582 13377280
-0.03795404 0.008983287 0.038700216 13377280
-0.035044178 0.0092874551 0.04132092 13377280
0.035044178 0.009287457 0.041320924 13377280
0.037954032 0.0089832861 0.038700227 13377280
-0.037225675 0.014578461 0.037722602 13377280
-0.033938259 0.015342927 0.040398482 13377280
0.033938285 0.015342925 0.040398486 13377280
0.037225679 0.014578464 0.037722602 13377280
-0.036401 0.018323001 0.036936 13377280
-0.032686152 0.020792974 0.038949247 13377280
-0.028862402 0.022189299 0.041196607 13377280
0.028862406 0.022189297 0.041196607 13377280
0.032686185 0.020792963 0.03894924 13377280
0.036401 0.018323001 0.036936 13377280
-0.031092891 0.025517108 0.037482891 13377280
-0.026940452 0.026940338 0.03957415 13377280
-0.022189396 0.028862402 0.041196611 13377280
0.022189397 0.028862406 0.041196611 13377280
0.026940444 0.026940368 0.039574135 13377280
0.03109289 0.02551711 0.037482895 13377280
-0.02551711 0.03109278 0.037482899 13377280
-0.02079308 0.032685969 0.03894924 13377280
-0.015342922 0.033938143 0.040398479 13377280
-0.0092876377 0.035044182 0.041320916 13377280
-0.0030796668 0.035760667 0.041646 13377280
0.0026397144 0.035784144 0.041646 13377280
0.0092876395 0.035044175 0.041320924 13377280
0.015342927 0.033938136 0.040398493 13377280
0.020793095 0.032685954 0.038949247 13377280
0.025517114 0.031092776 0.037482895 13377280
-0.018323001 0.036401 0.036936 13377280
-0.014578599 0.037225474 0.037722606 13377280
-0.0089832889 0.037954003 0.038700216 13377280
-0.0033317995 0.038690172 0.038867593 13377280
0.0028557989 0.038715515 0.038867574 13377280
0.0089832889 0.037953995 0.03870023 13377280
0.014578599 0.037225403 0.03772261 13377280
0.018323001 0.036401 0.036936 13377280
-0.014258543 -0.031183001 0.04296793 13377280
-0.0089084627 -0.032072973 0.043726284 13377280
-0.0032055425 -0.032546975 0.044149835 13377280
0.00280485 -0.032571629 0.044149846 13377280
0.0089084627 -0.032072973 0.043726265 13377280
0.014258619 -0.031183003 0.042967923 13377280
-0.024667 -0.024667 0.042515997 13377280
-0.020344896 -0.026379738 0.043697383 13377280
-0.014940837 -0.027018784 0.045431945 13377280
-0.0091993492 -0.027389355 0.046736591 13377280
-0.0033294624 -0.028065536 0.04713697 13377280
0.0029850691 -0.02808672 0.047139924 13377280
0.0091993492 -0.027389349 0.046736587 13377280
0.014940815 -0.027018787 0.045431945 13377280
0.020344904 -0.026379732 0.043697394 13377280
0.024667 -0.024667 0.042515997 13377280
-0.026379671 -0.020344965 0.043697391 13377280
-0.021112017 -0.021112133 0.046113286 13377280
-0.015871115 -0.022588175 0.047533333 13377280
0.015871059 -0.022588236 0.04753333 13377280
0.021112027 -0.021112163 0.046113294 13377280
0.026379669 -0.020344971 0.043697383 13377280
-0.031183003 -0.014258619 0.042967923 13377280
-0.027018733 -0.01494098 0.045431942 13377280
-0.022588177 -0.015871176 0.047533341 13377280
0.022588177 -0.015871176 0.047533326 13377280
0.027018713 -0.014940927 0.045431934 13377280
0.031183008 -0.014258614 0.04296793 13377280
-0.032072946 -0.0089086061 0.043726277 13377280
-0.027389243 -0.0091995401 0.046736602 13377280
0.027389243 -0.0091995392 0.046736594 13377280
0.03207295 -0.0089085717 0.043726269 13377280
-0.032546937 -0.0032055993 0.044149831 13377280
-0.028065424 -0.0033295387 0.04713697 13377280
0.028065469 -0.0033295383 0.04713697 13377280
0.032546941 -0.0032056002 0.044149835 13377280
-0.032571584 0.0028048495 0.044149842 13377280
-0.028086621 0.002984931 0.047139928 13377280
0.028086608 0.0029849312 0.04713992 13377280
0.032571573 0.0028048246 0.044149842 13377280
-0.032072898 0.0089083929 0.043726277 13377280
-0.027389253 0.0091992952 0.046736598 13377280
0.027389249 0.0091993241 0.046736602 13377280
0.032072891 0.0089083929 0.043726265 13377280
-0.031182926 0.014258308 0.04296793 13377280
-0.027018717 0.014940793 0.045431945 13377280
-0.022588175 0.015871055 0.047533326 13377280
0.022588177 0.015871059 0.047533337 13377280
0.027018707 0.01494077 0.045431949 13377280
0.031182922 0.014258309 0.04296793 13377280
-0.026379671 0.020344734 0.043697394 13377280
-0.021112019 0.021112021 0.046113301 13377280
-0.015871061 0.022587944 0.047533337 13377280
0.015871119 0.022587994 0.04753333 13377280
0.021112021 0.021111969 0.04611329 13377280
0.026379671 0.02034474 0.043697391 13377280
-0.024667 0.024667 0.042515997 13377280
-0.02034487 0.026379608 0.043697402 13377280
-0.014940836 0.027018674 0.045431942 13377280
-0.0091993501 0.027389223 0.046736591 13377280
-0.0033295003 0.028065303 0.047136977 13377280
0.0029850693 0.02808651 0.047139924 13377280
0.0091993492 0.027389223 0.046736598 13377280
0.014940847 0.027018685 0.045431957 13377280
0.020344831 0.026379576 0.043697394 13377280
0.024667 0.024667 0.042515997 13377280
-0.014258543 0.031182842 0.04296793 13377280
-0.0089084618 0.032072909 0.043726288 13377280
-0.0032055434 0.032546945 0.044149835 13377280
0.00280485 0.032571517 0.044149831 13377280
0.0089084636 0.032072898 0.043726265 13377280
0.014258466 0.031182846 0.042967923 13377280
-0.0078233341 -0.024694668 0.048506007 13377280
-0.0030941116 -0.025086997 0.048816521 13377280
0.0027847004 -0.025111103 0.048816524 13377280
0.0078233331 -0.024694666 0.048506007 13377280
-0.018332999 -0.018332999 0.048505999 13377280
-0.014386777 -0.020075612 0.049094796 13377280
-0.0088810911 -0.020947127 0.050004259 13377280
-0.0030051889 -0.020781269 0.050775081 13377280
0.0027461192 -0.02080315 0.050775755 13377280
0.0088810874 -0.020947125 0.050004277 13377280
0.01438678 -0.02007561 0.049094792 13377280
0.018332999 -0.018332999 0.048505999 13377280
-0.020075483 -0.014386869 0.049094796 13377280
-0.01494767 -0.014947715 0.050709803 13377280
-0.0089624226 -0.014888376 0.052124295 13377280
-0.0031301139 -0.014800594 0.052820116 13377280
0.0029241971 -0.014791382 0.052830383 13377280
0.0089624319 -0.014888374 0.052124288 13377280
0.014947642 -0.014947729 0.050709758 13377280
0.020075481 -0.014386873 0.049094796 13377280
-0.0246945 -0.0078233341 0.048506007 13377280
-0.020947067 -0.0088812355 0.050004262 13377280
-0.014888312 -0.0089625465 0.052124288 13377280
-0.0090575796 -0.0090577509 0.053432263 13377280
-0.0033721661 -0.01064478 0.053823482 13377280
0.0032937436 -0.010646764 0.053826261 13377280
0.0090576066 -0.0090577547 0.053432271 13377280
0.014888313 -0.0089625427 0.052124284 13377280
0.020947073 -0.0088812187 0.050004262 13377280
0.024694497 -0.0078233341 0.048506007 13377280
-0.025087005 -0.0030941672 0.048816528 13377537
-0.020781169 -0.0030052646 0.050775114 13377280
-0.014800473 -0.0031301973 0.052820113 13377280
-0.010644685 -0.003372286 0.053823482 13377280
0.010644688 -0.0033722606 0.053823479 13377280
0.0148005 -0.0031301966 0.052820124 13377280
0.020781199 -0.0030052639 0.050775103 13377280
0.025086997 -0.0030941663 0.048816528 13377280
-0.025111098 0.0027846503 0.048816532 13377280
-0.020803066 0.0027460845 0.050775778 13377280
-0.01479126 0.0029241322 0.052830387 13377280
-0.010646672 0.0032937198 0.053826254 13377280
0.010646673 0.0032937187 0.053826243 13377280
0.014791296 0.0029241315 0.052830387 13377280
0.020803079 0.0027460686 0.050775763 13377280
0.025111098 0.0027846501 0.048816528 13377280
-0.024694502 0.0078231664 0.048506007 13377280
-0.020947071 0.0088810707 0.050004262 13377280
-0.014888314 0.0089623574 0.052124295 13377280
-0.0090575907 0.009057546 0.053432263 13377280
-0.0033721665 0.010644639 0.053823482 13377280
0.0032937436 0.010646621 0.053826254 13377280
0.0090576047 0.0090575423 0.053432241 13377280
0.014888313 0.0089623565 0.052124292 13377280
0.020947071 0.0088810707 0.050004244 13377280
0.0246945 0.0078231664 0.048506007 13377280
-0.020075448 0.014386714 0.049094796 13377280
-0.014947647 0.014947596 0.050709803 13377280
-0.0089624384 0.014888188 0.052124303 13377280
-0.003130113 0.0148004 0.052820101 13377280
0.0029241974 0.014791186 0.052830394 13377280
0.0089624319 0.014888206 0.052124299 13377280
0.014947671 0.014947599 0.050709784 13377280
0.02007548 0.014386684 0.049094796 13377280
-0.018332999 0.018332999 0.048505999 13377280
-0.014386808 0.020075357 0.0490948 13377280
-0.0088810902 0.020947002 0.050004244 13377280
-0.0030051875 0.020781148 0.0507751 13377280
0.0027461199 0.020803027 0.050775792 13377280
0.0088811079 0.020946989 0.050004248 13377280
0.014386775 0.020075353 0.049094804 13377280
0.018332999 0.018332999 0.048505999 13377280
-0.0078233341 0.024694502 0.048506007 13377280
-0.0030941116 0.025086951 0.048816528 13377280
0.0027846997 0.025111046 0.048816536 13377280
0.0078233341 0.024694497 0.048506007 13377280
-0.006641 -0.006641 0.05419001 13377280
