# .PCD v0.7 - Point Cloud Data file format
VERSION 0.7
FIELDS x y z rgba
SIZE 4 4 4 4
TYPE F F F U
COUNT 1 1 1 1
WIDTH 1000
HEIGHT 1
VIEWPOINT 0 0 0 1 0 0 0
POINTS 1000
DATA ascii
-0.0096009448 -0.022212723 -0.049357258 13377280
-0.0035614737 -0.022952976 -0.049797829 13377280
0.0032222855 -0.022947481 -0.049815666 13377280
0.0096008889 -0.022212718 -0.049357258 13377280
-0.016476166 -0.016476188 -0.049758468 13377280
-0.010346474 -0.017367162 -0.051062398 13377280
-0.0035281482 -0.017278023 -0.052016221 13377280
0.0033364017 -0.017276088 -0.052025817 13377280
0.01034647 -0.017367164 -0.051062401 13377280
0.016476164 -0.016476212 -0.049758479 13377280
-0.02221261 -0.0096009439 -0.049357258 13377280
-0.017367074 -0.010346611 -0.051062379 13377280
-0.01029157 -0.010291684 -0.052959502 13377280
-0.0034849939 -0.010187936 -0.053863365 13377280
0.0033587259 -0.010207352 -0.05386509 13377280
0.010291568 -0.01029168 -0.052959528 13377280
0.017367074 -0.010346605 -0.051062368 13377280
0.022212612 -0.009600943 -0.049357258 13377280
-0.022952951 -0.0035616069 -0.049797826 13377280
-0.017277932 -0.0035282432 -0.052016273 13377280
-0.010187795 -0.003485092 -0.053863369 13377280
-0.0028309261 -0.002831012 -0.054782886 13377280
0.002790021 -0.0028485374 -0.054783385 13377280
0.01018778 -0.0034850864 -0.053863369 13377280
0.017277939 -0.0035282527 -0.052016255 13377280
0.02295295 -0.003561605 -0.049797818 13377280
-0.022947459 0.0032222143 -0.049815662 13377280
-0.017275991 0.003336349 -0.052025847 13377280
-0.010207219 0.0033586747 -0.053865068 13377280
-0.0028484552 0.0027899384 -0.054783385 13377280
0.0023748605 0.0023747918 -0.054817252 13377280
0.010207226 0.0033586754 -0.053865075 13377280
0.017275991 0.0033363486 -0.052025817 13377280
0.022947455 0.0032222143 -0.049815655 13377280
-0.022212613 0.0096008889 -0.049357258 13377280
-0.017367071 0.010346419 -0.05106239 13377280
-0.010291581 0.010291504 -0.05295952 13377280
-0.0034849942 0.010187772 -0.053863361 13377280
0.0033587248 0.010207197 -0.053865075 13377280
0.010291566 0.010291493 -0.052959517 13377280
0.017367089 0.010346404 -0.05106236 13377280
0.022212664 0.009600888 -0.049357258 13377280
-0.016476164 0.016476069 -0.049758457 13377280
-0.010346455 0.017366994 -0.051062372 13377280
-0.0035281503 0.017277883 -0.052016214 13377280
0.0033364038 0.017275957 -0.052025799 13377280
0.01034647 0.017367017 -0.051062379 13377280
0.016476169 0.016476067 -0.049758475 13377280
-0.0096008871 0.022212556 -0.049357258 13377280
-0.0035614744 0.022952873 -0.049797833 13377280
0.0032222867 0.022947399 -0.049815666 13377280
0.0096008861 0.022212612 -0.049357258 13377280
-0.01666452 -0.02953165 -0.043240018 13377280
-0.0101822 -0.030876517 -0.044270344 13377280
-0.0035806051 -0.031493735 -0.044835139 13377280
0.003182776 -0.031509068 -0.044843767 13377280
0.010182196 -0.030876517 -0.044270363 13377280
0.016664514 -0.029531652 -0.043240014 13377280
-0.023547798 -0.023547824 -0.043690514 13377280
-0.017483275 -0.024480816 -0.045940462 13377280
-0.011027416 -0.025329191 -0.047482252 13377280
-0.004064539 -0.026453882 -0.047999613 13377280
0.0037742157 -0.02645853 -0.048012521 13377280
0.011027439 -0.025329197 -0.047482256 13377280
0.017483231 -0.024480829 -0.045940492 13377280
0.023547795 -0.023547858 -0.043690518 13377280
-0.02953157 -0.016664514 -0.043240014 13377280
-0.024480743 -0.017483396 -0.045940485 13377280
-0.0189365 -0.018936571 -0.047986198 13377280
0.0189365 -0.018936571 -0.047986191 13377280
0.024480721 -0.017483374 -0.045940481 13377280
0.029531566 -0.016664525 -0.043240014 13377280
-0.030876428 -0.010182308 -0.044270352 13377280
-0.025329079 -0.011027564 -0.047482256 13377280
0.0253291 -0.011027565 -0.047482256 13377280
0.030876422 -0.010182286 -0.044270344 13377280
-0.031493671 -0.0035806953 -0.044835124 13377280
-0.026453881 -0.0040646158 -0.047999606 13377280
0.026453881 -0.0040646154 -0.047999617 13377280
0.031493697 -0.0035806776 -0.044835109 13377280
-0.031509023 0.0031827136 -0.044843763 13377280
-0.026458457 0.0037741794 -0.048012529 13377280
0.026458453 0.0037741787 -0.048012529 13377280
0.031509019 0.0031826973 -0.044843782 13377280
-0.030876415 0.010182109 -0.044270344 13377280
-0.025329089 0.011027346 -0.047482256 13377280
0.025329085 0.011027349 -0.047482252 13377280
0.030876392 0.010182111 -0.044270344 13377280
-0.029531559 0.016664477 -0.043240014 13377280
-0.024480719 0.017483206 -0.045940489 13377280
-0.0189365 0.018936427 -0.047986198 13377280
0.0189365 0.018936437 -0.047986202 13377280
0.024480728 0.017483184 -0.045940477 13377280
0.029531557 0.016664434 -0.043240014 13377280
-0.023547767 0.023547716 -0.043690525 13377280
-0.017483251 0.024480643 -0.045940515 13377280
-0.011027413 0.025328958 -0.047482256 13377280
-0.0040645385 0.026453841 -0.047999606 13377280
0.0037742157 0.026458422 -0.048012525 13377280
0.011027438 0.025329025 -0.047482237 13377280
0.017483262 0.024480635 -0.045940485 13377280
0.023547739 0.023547716 -0.043690518 13377280
-0.016664522 0.029531559 -0.043240018 13377280
-0.010182157 0.030876379 -0.044270344 13377280
-0.0035806242 0.031493645 -0.044835117 13377280
0.0031827765 0.031508949 -0.044843767 13377280
0.010182153 0.030876361 -0.044270337 13377280
0.016664518 0.029531565 -0.043240014 13377280
-0.021846002 -0.035453502 -0.035923999 13377280
-0.016862797 -0.036751445 -0.037200045 13377280
-0.010293823 -0.037758723 -0.038513266 13377280
-0.0037337281 -0.038560227 -0.038904794 13377280
0.0032585443 -0.038596392 -0.038897045 13377280
0.010293826 -0.037758734 -0.038513269 13377280
0.016862798 -0.036751445 -0.037200045 13377280
0.021846002 -0.035453502 -0.035923999 13377280
-0.028989574 -0.028989716 -0.036643568 13377280
-0.024144933 -0.031042907 -0.03832322 13377280
-0.018099427 -0.032729063 -0.040232141 13377280
-0.01161378 -0.03419245 -0.041447341 13377280
0.011613781 -0.034192447 -0.041447338 13377280
0.018099431 -0.032729063 -0.040232148 13377280
0.024144936 -0.031042907 -0.038323216 13377280
0.028989572 -0.028989717 -0.036643568 13377280
-0.035453502 -0.021846002 -0.035923999 13377280
-0.031042846 -0.024145044 -0.038323224 13377280
-0.025935203 -0.025935253 -0.040923551 13377280
0.025935207 -0.025935303 -0.040923554 13377280
0.031042822 -0.024145041 -0.038323216 13377280
0.035453498 -0.021846 -0.035923999 13377280
-0.036751281 -0.01686288 -0.037200045 13377280
-0.032728907 -0.018099517 -0.040232137 13377280
0.032728922 -0.01809952 -0.040232141 13377280
0.036751289 -0.016862879 -0.037200045 13377280
-0.037758585 -0.010293867 -0.038513266 13377280
-0.034192223 -0.011613779 -0.041447338 13377280
0.034192223 -0.011613777 -0.041447341 13377280
0.037758574 -0.010293869 -0.038513266 13377280
-0.038560051 -0.0037338324 -0.038904782 13377280
0.038560055 -0.0037338138 -0.03890479 13377280
-0.038596217 0.0032584362 -0.038897041 13377280
0.038596224 0.0032584369 -0.038897041 13377280
-0.037758522 0.010293756 -0.038513269 13377280
-0.034192227 0.011613667 -0.041447334 13377280
0.034192223 0.011613667 -0.041447338 13377280
0.037758544 0.010293753 -0.038513269 13377280
-0.036751252 0.016862638 -0.037200045 13377280
-0.032728855 0.018099427 -0.040232141 13377280
0.032728884 0.018099397 -0.040232137 13377280
0.036751244 0.016862638 -0.037200045 13377280
-0.035453003 0.021846002 -0.035923999 13377280
-0.031042747 0.024144851 -0.038323224 13377280
-0.02593505 0.025934998 -0.040923551 13377280
0.02593505 0.025934998 -0.040923547 13377280
0.031042777 0.024144843 -0.038323216 13377280
0.035453003 0.021846 -0.035923999 13377280
-0.028989425 0.028989285 -0.036643572 13377280
-0.024144914 0.031042675 -0.038323231 13377280
-0.018099423 0.032728691 -0.040232144 13377280
-0.011613777 0.034192227 -0.041447338 13377280
0.011613781 0.034192227 -0.041447338 13377280
0.018099427 0.03272872 -0.040232155 13377280
0.024144888 0.031042652 -0.038323216 13377280
0.028989429 0.028989431 -0.036643568 13377280
-0.021846002 0.035453003 -0.035923999 13377280
-0.016862761 0.03675108 -0.037200041 13377280
-0.010293822 0.037758473 -0.038513269 13377280
-0.0037337078 0.038559962 -0.038904771 13377280
0.003258528 0.038596123 -0.038897041 13377280
0.010293799 0.037758447 -0.038513273 13377280
0.016862761 0.036751136 -0.037200045 13377280
0.021846002 0.035453003 -0.035923999 13377280
-0.021211 -0.042137999 -0.028276 13377280
-0.016744722 -0.043203499 -0.029542672 13377280
-0.010365646 -0.04418955 -0.030926049 13377280
-0.0038500244 -0.044708386 -0.031631287 13377280
0.00330002 -0.044737641 -0.031631295 13377280
0.010365649 -0.044189576 -0.030926041 13377280
0.016744722 -0.043203495 -0.029542664 13377280
0.021211 -0.042137999 -0.028276 13377280
-0.029270109 -0.036267996 -0.029165678 13377280
-0.024229554 -0.03807646 -0.031269494 13377280
-0.01806532 -0.039973617 -0.033057448 13377280
-0.011257819 -0.041340373 -0.034410998 13377280
0.011257818 -0.041340377 -0.034410991 13377280
0.01806532 -0.039973635 -0.033057462 13377280
0.024229549 -0.038076449 -0.031269498 13377280
0.029270116 -0.036268003 -0.029165676 13377280
-0.036267892 -0.029270338 -0.029165676 13377280
-0.031653527 -0.031653639 -0.031778954 13377280
-0.026433114 -0.033870775 -0.034304112 13377280
0.026433114 -0.033870779 -0.034304105 13377280
0.031653542 -0.031653654 -0.031778969 13377280
0.036267888 -0.029270338 -0.029165676 13377280
-0.042137999 -0.021211 -0.028276 13377280
-0.038076334 -0.02422969 -0.031269498 13377280
-0.033870555 -0.026433112 -0.034304112 13377280
0.033870555 -0.026433114 -0.034304112 13377280
0.03807633 -0.02422969 -0.031269502 13377280
0.042137999 -0.021211 -0.028276 13377280
-0.043203507 -0.016744776 -0.029542664 13377280
-0.039973427 -0.018065356 -0.033057459 13377280
0.039973415 -0.018065348 -0.033057459 13377280
0.043203492 -0.016744828 -0.029542668 13377280
-0.044189479 -0.010365762 -0.030926045 13377280
-0.04134037 -0.011258092 -0.034410991 13377280
0.041340373 -0.011258092 -0.034410998 13377280
0.044189487 -0.010365769 -0.030926049 13377280
-0.044708211 -0.0038501185 -0.031631298 13377280
0.044708215 -0.0038501199 -0.031631287 13377280
-0.044737499 0.003299939 -0.031631306 13377280
0.044737484 0.0032999378 -0.03163131 13377280
-0.044189483 0.01036559 -0.030926045 13377280
-0.04134028 0.011257456 -0.034410994 13377280
0.041340377 0.011257456 -0.034410998 13377280
0.044189442 0.010365591 -0.030926045 13377280
-0.04320344 0.016744666 -0.029542664 13377280
-0.039973393 0.018065223 -0.033057455 13377280
0.039973386 0.018065222 -0.033057455 13377280
0.043203432 0.016744666 -0.029542662 13377280
-0.042137999 0.02121 -0.028276 13377280
-0.038076252 0.024229359 -0.031269513 13377280
-0.033870552 0.026433116 -0.03430412 13377280
0.033870555 0.026433002 -0.034304112 13377280
0.038076285 0.024229359 -0.031269509 13377280
0.042137999 0.02121 -0.028276 13377280
-0.036267664 0.029270003 -0.029165676 13377280
-0.031653449 0.031653386 -0.031778969 13377280
-0.026433112 0.033870555 -0.034304108 13377280
0.026433112 0.033870555 -0.034304105 13377280
0.031653494 0.031653386 -0.031778965 13377280
0.036267668 0.029270003 -0.029165676 13377280
-0.029270116 0.036267441 -0.029165676 13377280
-0.024229456 0.038076185 -0.031269513 13377280
-0.018065289 0.039973166 -0.033057455 13377280
-0.011257545 0.041340277 -0.034410998 13377280
0.011257637 0.041340187 -0.034410994 13377280
0.018065322 0.039973222 -0.033057462 13377280
0.024229478 0.038076155 -0.031269498 13377280
0.029270113 0.036267437 -0.029165676 13377280
-0.02121 0.042137999 -0.028276 13377280
-0.016744666 0.043203387 -0.029542664 13377280
-0.010365622 0.044189364 -0.030926038 13377280
-0.0038500244 0.044708122 -0.031631283 13377280
0.0033000198 0.044737428 -0.031631283 13377280
0.010365647 0.044189431 -0.030926041 13377280
0.016744666 0.04320338 -0.029542668 13377280
0.021211 0.042137999 -0.028276 13377280
-0.0093631009 -0.049587507 -0.021790706 13377280
-0.0034738828 -0.049986005 -0.022571344 13377280
0.0028121902 -0.049985997 -0.022632984 13377280
0.0093630999 -0.049587507 -0.021790706 13377280
-0.028231001 -0.04225 -0.021048 13377280
-0.023725826 -0.043636184 -0.023455357 13377280
-0.017464595 -0.046115577 -0.024151979 13377280
-0.010672035 -0.047691491 -0.025070298 13377280
-0.003835693 -0.048219457 -0.026105158 13377280
0.0033242668 -0.048214264 -0.026160207 13377280
0.010672037 -0.047691494 -0.025070298 13377280
0.017464597 -0.046115562 -0.024151979 13377280
0.023725795 -0.043636184 -0.023455355 13377280
0.028231001 -0.04225 -0.021048 13377280
-0.0356966 -0.0356966 -0.021789402 13377280
-0.031334367 -0.03818813 -0.023976816 13377280
-0.026371928 -0.040777542 -0.02573185 13377280
0.026371926 -0.040777545 -0.025731852 13377280
0.031334359 -0.038188126 -0.023976821 13377280
0.0356966 -0.0356966 -0.0217894 13377280
-0.04225 -0.028231001 -0.021048 13377280
-0.038187891 -0.031334426 -0.02397682 13377280
-0.034106601 -0.034106605 -0.026396602 13377280
0.034106597 -0.034106601 -0.026396602 13377280
0.038187899 -0.031334437 -0.023976823 13377280
0.04225 -0.028231001 -0.021048 13377280
-0.043636184 -0.023725865 -0.023455363 13377280
-0.040777385 -0.026372008 -0.025731849 13377280
0.040777378 -0.026372006 -0.02573185 13377280
0.043636143 -0.023725869 -0.023455355 13377280
-0.046115503 -0.017464703 -0.024151983 13377280
0.04611548 -0.017464699 -0.024151973 13377280
-0.049587205 -0.0093632005 -0.021790706 13377280
-0.047691349 -0.010672075 -0.025070293 13377280
0.047691375 -0.010672074 -0.025070297 13377280
0.049587104 -0.0093631987 -0.021790706 13377280
-0.049985886 -0.0034739408 -0.022571344 13377280
-0.048219148 -0.0038359235 -0.026105162 13377280
0.048219305 -0.0038359226 -0.026105156 13377280
0.049985889 -0.0034739419 -0.022571346 13377280
-0.049985863 0.0028120948 -0.02263299 13377280
-0.048213996 0.0033242663 -0.026160203 13377280
0.048214059 0.0033242002 -0.026160201 13377280
0.049985863 0.0028120473 -0.02263299 13377280
-0.049587205 0.0093631009 -0.021790704 13377280
-0.047691297 0.010671927 -0.025070295 13377280
0.047691349 0.010671925 -0.025070293 13377280
0.049587108 0.0093630999 -0.021790704 13377280
-0.046115406 0.017464399 -0.024151983 13377280
0.046115439 0.017464399 -0.024151981 13377280
-0.043636139 0.023725644 -0.023455355 13377280
-0.040777225 0.026371768 -0.025731849 13377280
0.040777382 0.02637185 -0.025731845 13377280
0.043636102 0.023725614 -0.023455357 13377280
-0.04225 0.02823 -0.021048 13377280
-0.038187835 0.031334259 -0.02397682 13377280
-0.034106404 0.034106404 -0.026396602 13377280
0.034106601 0.034106404 -0.026396602 13377280
0.038187847 0.031334262 -0.023976833 13377280
0.04225 0.02823 -0.021048 13377280
-0.0356966 0.035695992 -0.0217894 13377280
-0.031334285 0.038187787 -0.023976825 13377280
-0.02637185 0.040777229 -0.025731852 13377280
0.026371848 0.040777225 -0.025731849 13377280
0.031334322 0.038187783 -0.023976823 13377280
0.0356966 0.035695992 -0.0217894 13377280
-0.02823 0.04225 -0.021048 13377280
-0.023725715 0.043635998 -0.02345535 13377280
-0.017464513 0.04611522 -0.024151977 13377280
-0.010671965 0.0476912 -0.025070295 13377280
-0.0038356918 0.048219148 -0.026105158 13377280
0.003324267 0.048213992 -0.026160201 13377280
0.010672001 0.047691204 -0.0250703 13377280
0.017464513 0.04611522 -0.024151983 13377280
0.023725759 0.043635998 -0.023455353 13377280
0.02823 0.04225 -0.021048 13377280
-0.009363099 0.0495869 -0.021790707 13377280
-0.0034738821 0.049985636 -0.022571344 13377280
0.0028121902 0.049985569 -0.02263299 13377280
0.0093630981 0.0495869 -0.021790707 13377280
-0.016305938 -0.049862947 -0.01636144 13377280
-0.01056532 -0.051024109 -0.01737947 13377280
-0.003837399 -0.052020162 -0.017242007 13377280
0.0031978337 -0.052048933 -0.017242003 13377280
0.010565283 -0.051024102 -0.017379465 13377280
0.016305937 -0.049862877 -0.016361434 13377280
-0.02962677 -0.043268617 -0.016453538 13377280
-0.024573904 -0.045987315 -0.017242322 13377280
-0.019105772 -0.048159238 -0.018324997 13377280
0.019105772 -0.048159227 -0.018324999 13377280
0.024573874 -0.045987301 -0.017242324 13377280
0.029626768 -0.043268614 -0.01645354 13377280
-0.03697437 -0.036974426 -0.016876385 13377280
-0.032755811 -0.040388957 -0.01772962 13377280
0.032755811 -0.040388949 -0.01772962 13377280
0.036974382 -0.03697443 -0.016876383 13377280
-0.043268465 -0.029626776 -0.016453538 13377280
-0.040388852 -0.032756001 -0.01772962 13377280
0.040388852 -0.032756001 -0.01772962 13377280
0.043268476 -0.029626768 -0.01645354 13377280
-0.045987193 -0.024573937 -0.017242324 13377280
0.045987211 -0.02457393 -0.017242318 13377280
-0.049862564 -0.016306004 -0.01636144 13377280
-0.048159003 -0.019105924 -0.018324997 13377280
0.048159007 -0.019105928 -0.018324997 13377280
0.04986256 -0.016306002 -0.01636144 13377280
-0.051024031 -0.010565499 -0.017379468 13377280
0.05102405 -0.010565499 -0.017379466 13377280
-0.052020006 -0.0038374399 -0.017242 13377280
0.052020006 -0.0038374399 -0.017242003 13377280
-0.052048791 0.0031977005 -0.017241998 13377280
0.052048795 0.0031977007 -0.017241998 13377280
-0.051024046 0.010565287 -0.017379468 13377280
0.051024046 0.010565286 -0.017379466 13377280
-0.04986256 0.016305877 -0.016361436 13377280
-0.048159 0.019105693 -0.018324997 13377280
0.048158996 0.019105693 -0.018324999 13377280
0.049862564 0.016305812 -0.016361438 13377280
-0.045987204 0.02457371 -0.01724232 13377280
0.045987215 0.024573682 -0.01724232 13377280
-0.043268465 0.02962669 -0.016453538 13377280
-0.040388852 0.032755803 -0.017729623 13377280
0.040388852 0.032755762 -0.017729625 13377280
0.043268461 0.029626694 -0.01645354 13377280
-0.036974374 0.036974236 -0.016876383 13377280
-0.032755811 0.040388815 -0.017729623 13377280
0.032755811 0.040388711 -0.017729621 13377280
0.03697437 0.036974184 -0.016876383 13377280
-0.029626766 0.043268461 -0.01645354 13377280
-0.024573803 0.045986917 -0.017242324 13377280
-0.019105693 0.048159007 -0.018324997 13377280
0.019105695 0.048159 -0.018325001 13377280
0.024573809 0.045986969 -0.017242324 13377280
0.029626764 0.043268461 -0.01645354 13377280
-0.01630594 0.0498625 -0.016361438 13377280
-0.010565284 0.051023968 -0.017379465 13377280
-0.0038373203 0.052019969 -0.017242 13377280
0.0031977992 0.052048735 -0.017241996 13377280
0.010565286 0.051023934 -0.017379466 13377280
0.016305938 0.049862497 -0.01636144 13377280
-0.022175003 -0.049367595 -0.0096646007 13377280
-0.017522367 -0.050933797 -0.0107234 13377280
-0.010511 -0.052843388 -0.010723398 13377280
-0.0039636008 -0.053732585 -0.0107234 13377280
0.0033029329 -0.053762324 -0.0107234 13377280
0.010510959 -0.052843399 -0.010723398 13377280
0.017522367 -0.050933793 -0.010723399 13377280
0.022174999 -0.049367599 -0.0096646007 13377280
-0.031157959 -0.043973539 -0.010621346 13377280
-0.025332475 -0.047500394 -0.010935158 13377280
0.025332483 -0.047500446 -0.010935158 13377280
0.031157963 -0.043973543 -0.010621347 13377280
-0.038102139 -0.038102325 -0.010563363 13377280
-0.034267399 -0.041342605 -0.011782201 13377280
0.034267403 -0.041342597 -0.011782201 13377280
0.038102102 -0.038102329 -0.010563363 13377280
-0.043973498 -0.031158037 -0.010621346 13377280
-0.041342601 -0.034267399 -0.011782201 13377280
0.041342601 -0.034267396 -0.011782201 13377280
0.043973509 -0.031158041 -0.010621345 13377280
-0.049366988 -0.022175003 -0.0096646026 13377280
-0.047500327 -0.025332559 -0.010935161 13377280
0.04750029 -0.025332561 -0.010935158 13377280
0.049366992 -0.022175001 -0.0096646016 13377280
-0.050933734 -0.01752243 -0.010723401 13377280
0.050933741 -0.01752243 -0.010723402 13377280
-0.052843198 -0.01051116 -0.010723399 13377280
0.052843198 -0.010511161 -0.010723399 13377280
-0.053732343 -0.00396364 -0.010723399 13377280
0.053732339 -0.0039636395 -0.010723399 13377280
-0.053762082 0.0033028328 -0.010723397 13377280
0.053762089 0.0033028664 -0.010723399 13377280
-0.052843198 0.010510961 -0.010723399 13377280
0.05284315 0.010510963 -0.010723398 13377280
-0.050933704 0.017522296 -0.010723399 13377280
0.050933741 0.0175223 -0.010723401 13377280
-0.049366992 0.022174999 -0.0096646007 13377280
-0.047500253 0.025332365 -0.010935158 13377280
0.047500253 0.025332358 -0.010935158 13377280
0.049366992 0.022174997 -0.0096646007 13377280
-0.043973431 0.031157803 -0.010621344 13377280
-0.0413424 0.034267399 -0.011782201 13377280
0.0413424 0.034267399 -0.011782201 13377280
0.043973453 0.031157803 -0.010621347 13377280
-0.038102072 0.038102042 -0.010563362 13377280
-0.034267403 0.041342203 -0.011782201 13377280
0.034267403 0.041342195 -0.011782201 13377280
0.038102061 0.038102031 -0.010563364 13377280
-0.031157913 0.043973386 -0.010621345 13377280
-0.025332477 0.04750013 -0.01093516 13377280
0.025332475 0.047500122 -0.01093516 13377280
0.031157922 0.043973349 -0.010621345 13377280
-0.022175001 0.049366795 -0.0096646016 13377280
-0.017522328 0.050933607 -0.010723396 13377280
-0.010510961 0.052843042 -0.010723399 13377280
-0.0039635208 0.053732228 -0.0107234 13377280
0.0033029332 0.053761952 -0.010723398 13377280
0.010510959 0.05284299 -0.0107234 13377280
0.017522333 0.050933607 -0.010723398 13377280
0.022175001 0.049366795 -0.0096646007 13377280
-0.022838997 -0.049863212 -0.0034668578 13377280
-0.017587679 -0.051863607 -0.0041880324 13377280
-0.010688082 -0.053732496 -0.004043798 13377280
-0.0040302016 -0.054636803 -0.0040437975 13377280
0.0033584333 -0.054667022 -0.0040437966 13377280
0.01068804 -0.053732503 -0.0040437966 13377280
0.017587604 -0.051863562 -0.0041880338 13377280
0.022838926 -0.049863212 -0.0034668574 13377280
-0.031526711 -0.044764511 -0.004043798 13377280
-0.026009232 -0.048219379 -0.0043544616 13377280
0.026009232 -0.048219383 -0.0043544616 13377280
0.031526707 -0.044764508 -0.004043798 13377280
-0.038715541 -0.038715634 -0.0040437975 13377280
0.038715541 -0.038715653 -0.0040437984 13377280
-0.044764426 -0.031526741 -0.004043798 13377280
0.044764429 -0.031526744 -0.004043797 13377280
-0.04986313 -0.022838995 -0.0034668576 13377280
-0.048219223 -0.026009234 -0.0043544616 13377280
0.04821923 -0.026009236 -0.0043544616 13377280
0.049863137 -0.022838995 -0.0034668574 13377280
-0.051863436 -0.017587859 -0.0041880324 13377280
0.051863413 -0.017587859 -0.0041880319 13377280
-0.053732332 -0.010688161 -0.004043797 13377280
0.053732343 -0.010688161 -0.004043798 13377280
-0.054636665 -0.0040303618 -0.004043798 13377280
0.05463668 -0.0040303613 -0.004043797 13377280
-0.054666918 0.0033583664 -0.0040437961 13377280
0.054666933 0.0033583669 -0.004043797 13377280
-0.053732343 0.01068792 -0.004043798 13377280
0.053732332 0.010687883 -0.004043798 13377280
-0.051863384 0.017587539 -0.0041880338 13377280
0.051863402 0.017587505 -0.0041880333 13377280
-0.049863137 0.022838851 -0.0034668576 13377280
-0.048219148 0.026009155 -0.0043544616 13377280
0.048219159 0.026009073 -0.0043544616 13377280
0.049863137 0.022838857 -0.0034668581 13377280
-0.044764351 0.031526659 -0.0040437984 13377280
0.044764359 0.031526651 -0.0040437994 13377280
-0.038715512 0.038715456 -0.004043798 13377280
0.038715504 0.038715463 -0.004043797 13377280
-0.0315267 0.044764381 -0.0040437989 13377280
-0.026009236 0.048219144 -0.004354462 13377280
0.02600923 0.048219148 -0.0043544616 13377280
0.031526692 0.044764332 -0.004043797 13377280
-0.022838851 0.049862865 -0.0034668574 13377280
-0.017587611 0.05186332 -0.0041880333 13377280
-0.010687999 0.053732231 -0.0040437961 13377280
-0.0040301206 0.054636508 -0.004043797 13377280
0.003358434 0.054666732 -0.0040437966 13377280
0.010687999 0.053732142 -0.004043797 13377280
0.017587608 0.051863313 -0.0041880319 13377280
0.022838859 0.049862854 -0.0034668578 13377280
-0.022851501 -0.0498905 0.002696445 13377280
-0.017535336 -0.051913496 0.0035534829 13377280
-0.010694003 -0.053762224 0.003369831 13377280
-0.004032433 -0.054667018 0.0033698305 13377280
0.0033603332 -0.054697268 0.0033698305 13377280
0.010693967 -0.053762231 0.0033698319 13377280
0.017535273 -0.051913455 0.0035534827 13377280
0.022851439 -0.049890496 0.0026964445 13377280
-0.03154419 -0.044789296 0.0033698312 13377280
-0.026077127 -0.048214197 0.0037738667 13377280
0.02607706 -0.048214193 0.0037738667 13377280
0.03154419 -0.044789296 0.003369831 13377280
-0.038736992 -0.038737092 0.003369831 13377280
0.038736984 -0.038737088 0.003369831 13377280
-0.044789191 -0.031544205 0.0033698326 13377280
0.044789214 -0.031544231 0.0033698319 13377280
-0.049890328 -0.022851501 0.002696445 13377280
-0.048214059 -0.026077133 0.0037738667 13377280
0.048214063 -0.026077127 0.0037738667 13377280
0.049890388 -0.022851497 0.0026964447 13377280
-0.051913302 -0.017535491 0.0035534825 13377280
0.051913328 -0.017535491 0.0035534822 13377280
-0.053762082 -0.010694069 0.0033698319 13377280
0.053762086 -0.010694067 0.0033698308 13377280
-0.054666895 -0.0040326011 0.0033698322 13377280
0.054666933 -0.0040326011 0.0033698312 13377280
-0.05469716 0.0033602763 0.0033698299 13377280
0.054697193 0.00336025 0.0033698315 13377280
-0.053762082 0.010693832 0.0033698312 13377280
0.053762082 0.010693801 0.0033698317 13377280
-0.051913317 0.017535146 0.0035534813 13377280
0.051913295 0.017535184 0.0035534827 13377280
-0.049890231 0.022851331 0.0026964447 13377280
-0.048213992 0.026077 0.0037738667 13377280
0.048213996 0.026076924 0.0037738669 13377280
0.049890328 0.022851329 0.0026964447 13377280
-0.044789132 0.031544104 0.003369831 13377280
0.044789169 0.031544097 0.0033698305 13377280
-0.038736962 0.038736865 0.0033698319 13377280
0.038736977 0.038736835 0.0033698312 13377280
-0.031544108 0.044789147 0.0033698317 13377280
-0.026077067 0.048213996 0.0037738667 13377280
0.026077066 0.048213996 0.0037738667 13377280
0.031544141 0.044789135 0.0033698305 13377280
-0.022851389 0.049890049 0.0026964445 13377280
-0.017535275 0.051913235 0.0035534825 13377280
-0.010693936 0.053761996 0.0033698299 13377280
-0.004032399 0.054666717 0.0033698308 13377280
0.0033603332 0.054696966 0.0033698308 13377280
0.010693935 0.053761914 0.0033698317 13377280
0.017535277 0.051913217 0.0035534815 13377280
0.022851387 0.04989 0.0026964447 13377280
-0.022175003 -0.049367595 0.0096648019 13377280
-0.017522365 -0.050933789 0.010723596 13377280
-0.010511 -0.052843362 0.010723599 13377280
-0.0039635603 -0.053732499 0.010723598 13377280
0.0033029329 -0.053762242 0.010723599 13377280
0.010510962 -0.052843414 0.010723599 13377280
0.017522365 -0.050933801 0.010723596 13377280
0.022175001 -0.049367599 0.0096648019 13377280
-0.031157957 -0.04397355 0.010621537 13377280
-0.025332477 -0.047500402 0.010935361 13377280
0.025332484 -0.047500409 0.010935359 13377280
0.031157959 -0.04397355 0.010621537 13377280
-0.038102109 -0.038102325 0.010563572 13377280
-0.034267399 -0.041342605 0.011782401 13377280
0.034267396 -0.041342597 0.011782401 13377280
0.038102083 -0.038102228 0.010563574 13377280
-0.043973505 -0.031158037 0.010621537 13377280
-0.0413424 -0.034267396 0.011782401 13377280
0.041342601 -0.034267399 0.011782401 13377280
0.043973505 -0.031158034 0.010621537 13377280
-0.049366992 -0.022175003 0.0096648019 13377280
-0.047500283 -0.025332559 0.010935359 13377280
0.047500275 -0.025332555 0.010935361 13377280
0.049366992 -0.022174999 0.0096648 13377280
-0.050933722 -0.017522434 0.010723599 13377280
0.050933734 -0.017522434 0.010723599 13377280
-0.052843213 -0.010511161 0.0107236 13377280
0.052843165 -0.010511163 0.010723599 13377280
-0.053732332 -0.0039636404 0.010723598 13377280
0.053732332 -0.0039635999 0.010723598 13377280
-0.053762075 0.0033028671 0.010723596 13377280
0.053762078 0.0033028338 0.0107236 13377280
-0.052843161 0.010510961 0.010723599 13377280
0.052843161 0.010510961 0.0107236 13377280
-0.050933715 0.017522266 0.010723597 13377280
0.05093373 0.017522302 0.010723596 13377280
-0.049366992 0.022175001 0.0096648009 13377280
-0.047500253 0.025332354 0.010935358 13377280
0.047500208 0.025332369 0.010935359 13377280
0.049366992 0.022175001 0.0096648019 13377280
-0.043973412 0.031157803 0.010621538 13377280
-0.041342203 0.034267399 0.011782401 13377280
0.0413424 0.034267399 0.0117824 13377280
0.043973427 0.03115781 0.010621538 13377280
-0.038102031 0.038102046 0.010563574 13377280
-0.034267396 0.041342199 0.011782401 13377280
0.034267399 0.041342199 0.011782401 13377280
0.038102068 0.038102042 0.010563573 13377280
-0.031157915 0.043973353 0.010621537 13377280
-0.025332486 0.047500122 0.010935359 13377280
0.025332469 0.04750013 0.010935358 13377280
0.031157918 0.04397336 0.010621537 13377280
-0.022174999 0.049366791 0.0096648 13377280
-0.017522329 0.050933603 0.010723596 13377280
-0.010510961 0.052843038 0.010723599 13377280
-0.0039635208 0.05373216 0.010723599 13377280
0.0033029334 0.053761911 0.010723596 13377280
0.010510961 0.052842963 0.0107236 13377280
0.017522333 0.050933599 0.010723596 13377280
0.022175001 0.049366795 0.0096648009 13377280
-0.016305937 -0.049862742 0.016361624 13377280
-0.010565319 -0.051024105 0.017379684 13377280
-0.0038374001 -0.052020121 0.017242206 13377280
0.0031977999 -0.052048918 0.017242212 13377280
0.010565284 -0.051024113 0.017379686 13377280
0.016305938 -0.049862817 0.016361624 13377280
-0.02962677 -0.043268617 0.016453691 13377280
-0.02457384 -0.045987271 0.017242553 13377280
-0.01910577 -0.048159242 0.01832515 13377280
0.019105693 -0.048159242 0.018325148 13377280
0.02457381 -0.045987267 0.017242553 13377280
0.029626774 -0.043268617 0.016453691 13377280
-0.036974378 -0.03697443 0.016876623 13377280
-0.032755807 -0.040388912 0.017729813 13377280
0.032755814 -0.040388897 0.017729811 13377280
0.03697437 -0.036974426 0.016876623 13377280
-0.043268457 -0.02962677 0.016453691 13377280
-0.040388852 -0.032755952 0.017729817 13377280
0.040388864 -0.032755997 0.017729815 13377280
0.043268461 -0.029626768 0.016453691 13377280
-0.045987204 -0.024573905 0.017242551 13377280
0.0459872 -0.024573931 0.017242549 13377280
-0.049862493 -0.016306002 0.016361622 13377280
-0.048159003 -0.019105848 0.018325148 13377280
0.048159 -0.019105924 0.018325148 13377280
0.049862556 -0.016306002 0.016361622 13377280
-0.051023971 -0.010565498 0.017379684 13377280
0.051024038 -0.010565499 0.017379683 13377280
-0.052019976 -0.0038374392 0.017242208 13377280
0.052019957 -0.0038374404 0.017242206 13377280
-0.052048765 0.0031977 0.017242206 13377280
0.052048765 0.0031977 0.017242201 13377280
-0.051023968 0.010565287 0.01737969 13377280
0.051024038 0.010565284 0.017379684 13377280
-0.049862485 0.016305814 0.016361626 13377280
-0.048159003 0.019105693 0.018325148 13377280
0.048159011 0.019105695 0.018325148 13377280
0.049862556 0.016305812 0.016361622 13377280
-0.045987118 0.024573673 0.017242551 13377280
0.045987133 0.024573676 0.017242551 13377280
-0.043268461 0.029626688 0.016453691 13377280
-0.040388856 0.032755759 0.017729813 13377280
0.040388815 0.032755774 0.017729815 13377280
0.043268468 0.029626694 0.016453691 13377280
-0.03697433 0.036974087 0.016876621 13377280
-0.032755803 0.040388703 0.017729813 13377280
0.032755814 0.040388677 0.017729815 13377280
0.03697437 0.036974091 0.016876619 13377280
-0.029626764 0.043268383 0.016453691 13377280
-0.024573803 0.045986917 0.017242549 13377280
-0.019105695 0.048158929 0.01832515 13377280
0.019105695 0.048159 0.018325148 13377280
0.024573809 0.045986921 0.017242555 13377280
0.029626766 0.043268457 0.016453691 13377280
-0.016305938 0.049862504 0.016361624 13377280
-0.010565283 0.051023938 0.017379683 13377280
-0.0038373203 0.052019872 0.017242206 13377280
0.0031978006 0.052048706 0.017242201 13377280
0.010565287 0.051023934 0.017379686 13377280
0.016305937 0.0498625 0.016361624 13377280
-0.0093630981 -0.049587511 0.021790806 13377280
-0.0034738816 -0.049986012 0.02257164 13377280
0.0028121907 -0.049986005 0.022633281 13377280
0.0093630999 -0.049587503 0.021790806 13377280
-0.028231001 -0.04225 0.021048 13377280
-0.023725752 -0.043636195 0.023455566 13377280
-0.017464565 -0.046115551 0.024152141 13377280
-0.010672037 -0.04769145 0.025070475 13377280
-0.0038356914 -0.048219308 0.026105158 13377280
0.0033242661 -0.04821413 0.026160203 13377280
0.010671998 -0.047691409 0.025070477 13377280
0.017464537 -0.046115547 0.024152141 13377280
0.023725759 -0.043636173 0.023455571 13377280
0.02823 -0.04225 0.021048 13377280
-0.035696603 -0.035696603 0.021789599 13377280
-0.031334341 -0.038188025 0.02397701 13377280
-0.026371926 -0.040777463 0.025731929 13377280
0.02637193 -0.040777467 0.025731931 13377280
0.031334352 -0.038188051 0.023977006 13377280
0.035696603 -0.0356966 0.021789601 13377280
-0.04225 -0.028231001 0.021048 13377280
-0.038187865 -0.031334367 0.023977002 13377280
-0.034106601 -0.034106601 0.026396606 13377280
0.034106601 -0.034106605 0.026396602 13377280
0.038187854 -0.03133437 0.023977006 13377280
0.04225 -0.028231001 0.021048 13377280
-0.043636143 -0.023725865 0.023455571 13377280
-0.040777385 -0.026371926 0.025731929 13377280
0.040777385 -0.026371928 0.025731925 13377280
0.043636143 -0.023725869 0.023455571 13377280
-0.046115421 -0.017464651 0.024152139 13377280
0.046115436 -0.017464669 0.024152141 13377280
-0.049587104 -0.0093632014 0.021790806 13377280
-0.047691304 -0.010672068 0.025070479 13377280
0.047691312 -0.010672076 0.025070477 13377280
0.049587101 -0.0093632014 0.021790804 13377280
-0.049985882 -0.0034739412 0.02257164 13377280
-0.048219152 -0.0038359989 0.026105158 13377280
0.048219144 -0.0038358462 0.026105156 13377280
0.049985882 -0.0034739412 0.02257164 13377280
-0.049985867 0.0028120952 0.022633281 13377280
-0.048214 0.0033242663 0.026160205 13377280
0.048214 0.0033241999 0.026160205 13377280
0.049985867 0.0028120475 0.022633282 13377280
-0.049587101 0.0093630999 0.021790806 13377280
-0.047691241 0.010671925 0.025070477 13377280
0.047691241 0.010671888 0.025070479 13377280
0.049587104 0.0093630999 0.021790808 13377280
-0.046115328 0.017464373 0.024152145 13377280
0.04611535 0.017464371 0.024152137 13377280
-0.043636035 0.023725608 0.023455571 13377280
-0.040777225 0.02637177 0.025731925 13377280
0.040777229 0.026371768 0.025731929 13377280
0.04363608 0.023725608 0.02345557 13377280
-0.04225 0.02823 0.021048 13377280
-0.038187813 0.031334244 0.023977004 13377280
-0.0341064 0.0341064 0.026396599 13377280
0.0341064 0.0341064 0.026396602 13377280
0.038187847 0.031334218 0.023976998 13377280
0.04225 0.02823 0.021048 13377280
-0.035696398 0.035696 0.021789599 13377280
-0.031334292 0.038187791 0.023977004 13377280
-0.026371846 0.040777151 0.025731925 13377280
0.026371853 0.040777154 0.025731929 13377280
0.031334292 0.038187753 0.023977004 13377280
0.035696395 0.035695992 0.021789603 13377280
-0.02823 0.04225 0.021048 13377280
-0.023725675 0.043636002 0.023455566 13377280
-0.017464453 0.046115145 0.024152143 13377280
-0.010671962 0.0476912 0.025070474 13377280
-0.0038356921 0.048219144 0.026105156 13377280
0.003324267 0.048213996 0.026160203 13377280
0.010671999 0.047691185 0.025070487 13377280
0.017464507 0.046115208 0.024152134 13377280
0.02372575 0.043635994 0.023455571 13377280
0.02823 0.04225 0.021048 13377280
-0.009363099 0.049586903 0.021790806 13377280
-0.0034738816 0.049985547 0.02257164 13377280
0.0028121907 0.049985528 0.022633271 13377280
0.009363099 0.0495869 0.021790808 13377280
-0.021211 -0.042137999 0.028276 13377280
-0.016744725 -0.043203492 0.029542664 13377280
-0.010365649 -0.044189572 0.030926038 13377280
-0.0038500226 -0.044708338 0.031631291 13377280
0.0033000219 -0.044737607 0.031631306 13377280
0.010365618 -0.044189554 0.030926045 13377280
0.016744718 -0.043203499 0.029542662 13377280
0.021211 -0.042137999 0.028276 13377280
-0.029270113 -0.036268003 0.029165676 13377280
-0.024229495 -0.038076434 0.031269509 13377280
-0.018065322 -0.039973505 0.033057459 13377280
-0.011257727 -0.041340377 0.034410991 13377280
0.011257635 -0.04134037 0.034410994 13377280
0.018065322 -0.039973512 0.033057451 13377280
0.024229515 -0.038076453 0.031269506 13377280
0.029270113 -0.036267996 0.029165678 13377280
-0.036267888 -0.02927033 0.029165676 13377280
-0.031653542 -0.031653654 0.031778954 13377280
-0.026433112 -0.033870559 0.034304112 13377280
0.026433114 -0.033870775 0.034304105 13377280
0.031653527 -0.031653624 0.031778969 13377280
0.036267892 -0.029270338 0.029165678 13377280
-0.042137999 -0.021211 0.028276 13377280
-0.038076311 -0.024229689 0.031269498 13377280
-0.033870555 -0.026433116 0.034304112 13377280
0.033870552 -0.026433114 0.034304108 13377280
0.038076311 -0.024229662 0.031269498 13377280
0.042137999 -0.021211 0.028276 13377280
-0.043203443 -0.016744776 0.029542662 13377280
-0.039973374 -0.018065348 0.033057459 13377280
0.039973389 -0.018065356 0.033057451 13377280
0.043203447 -0.016744772 0.029542664 13377280
-0.044189487 -0.010365705 0.030926038 13377280
-0.041340277 -0.011258092 0.034410998 13377280
0.041340366 -0.011258091 0.034410998 13377280
0.044189487 -0.010365769 0.030926038 13377280
-0.044708211 -0.0038501169 0.031631287 13377280
0.044708215 -0.0038501187 0.03163128 13377280
-0.044737466 0.0032999385 0.031631291 13377280
0.04473751 0.0032999385 0.031631287 13377280
-0.044189487 0.01036559 0.030926049 13377280
-0.041340277 0.011257456 0.034410998 13377280
0.041340377 0.011257456 0.034410994 13377280
0.044189446 0.010365589 0.030926045 13377280
-0.043203373 0.016744658 0.029542662 13377280
-0.039973333 0.01806519 0.033057462 13377280
0.039973345 0.01806522 0.033057455 13377280
0.043203447 0.016744666 0.029542664 13377280
-0.042137999 0.02121 0.028276 13377280
-0.038076229 0.024229357 0.031269521 13377280
-0.033870559 0.02643311 0.034304116 13377280
0.033870559 0.026433002 0.034304112 13377280
0.038076263 0.024229364 0.031269509 13377280
0.042137999 0.02121 0.028276 13377280
-0.036267553 0.029270001 0.029165678 13377280
-0.031653427 0.031653371 0.03177898 13377280
-0.026433114 0.033870559 0.034304108 13377280
0.026433112 0.033870559 0.034304108 13377280
0.031653441 0.031653382 0.031778969 13377280
0.03626756 0.029270001 0.029165678 13377280
-0.029270003 0.036267444 0.029165678 13377280
-0.024229398 0.038076129 0.03126948 13377280
-0.018065287 0.039973162 0.033057455 13377280
-0.011257546 0.041340191 0.034410998 13377280
0.011257545 0.041340191 0.034410998 13377280
0.018065257 0.039973196 0.033057455 13377280
0.024229473 0.038076147 0.031269491 13377280
0.029270113 0.036267444 0.029165676 13377280
-0.02121 0.042137999 0.028276 13377280
-0.016744666 0.043203384 0.029542664 13377280
-0.010365621 0.044189356 0.030926045 13377280
-0.003850024 0.044708043 0.031631287 13377280
0.0033000209 0.044737339 0.031631306 13377280
0.01036562 0.044189423 0.030926049 13377280
0.016744671 0.043203384 0.029542664 13377280
0.02121 0.042137999 0.028276 13377280
-0.021846 -0.035453498 0.035923999 13377280
-0.0168628 -0.036751375 0.037200045 13377280
-0.010293825 -0.037758667 0.038513273 13377280
-0.0037337309 -0.0385602 0.038904782 13377280
0.0032585277 -0.038596354 0.038897056 13377280
0.010293826 -0.037758697 0.038513262 13377280
0.016862798 -0.036751367 0.037200041 13377280
0.021846002 -0.035453502 0.035923999 13377280
-0.028989572 -0.028989716 0.036643568 13377280
-0.024144908 -0.031042885 0.038323231 13377280
-0.018099427 -0.032729063 0.040232129 13377280
-0.011613778 -0.034192447 0.041447341 13377280
0.011613782 -0.034192447 0.041447334 13377280
0.018099422 -0.032729067 0.040232133 13377280
0.024144907 -0.031042889 0.03832322 13377280
0.028989572 -0.028989717 0.036643568 13377280
-0.035453498 -0.021846002 0.035923999 13377280
-0.031042796 -0.024145044 0.038323216 13377280
-0.025935197 -0.025935253 0.040923547 13377280
0.025935207 -0.025935302 0.040923547 13377280
0.03104279 -0.024145044 0.038323227 13377280
0.035453502 -0.021846002 0.035923999 13377280
-0.036751293 -0.016862841 0.037200045 13377280
-0.032728929 -0.018099509 0.040232152 13377280
0.032728892 -0.018099528 0.040232133 13377280
0.036751244 -0.016862884 0.037200045 13377280
-0.037758555 -0.010293891 0.038513262 13377280
-0.034192227 -0.011613777 0.041447345 13377280
0.034192223 -0.011613779 0.041447334 13377280
0.037758555 -0.010293867 0.038513273 13377280
-0.038560048 -0.0037338131 0.03890479 13377280
0.038560033 -0.0037338138 0.038904797 13377280
-0.038596209 0.0032584355 0.038897056 13377280
0.038596191 0.0032584355 0.038897041 13377280
-0.037758514 0.010293756 0.038513292 13377280
-0.034192227 0.011613666 0.041447338 13377280
0.034192227 0.011613667 0.041447334 13377280
0.037758507 0.010293753 0.038513273 13377280
-0.036751244 0.01686264 0.037200045 13377280
-0.032728825 0.018099364 0.040232144 13377280
0.032728851 0.018099397 0.040232148 13377280
0.036751248 0.01686264 0.037200045 13377280
-0.035453003 0.021846002 0.035923999 13377280
-0.031042766 0.0241448 0.038323216 13377280
-0.025935045 0.025934946 0.040923547 13377280
0.025935048 0.025934946 0.040923551 13377280
0.03104279 0.0241448 0.038323224 13377280
0.035453003 0.021846 0.035923999 13377280
-0.028989431 0.028989429 0.036643572 13377280
-0.024144888 0.031042663 0.038323216 13377280
-0.018099425 0.032728709 0.040232148 13377280
-0.011613782 0.034192227 0.041447338 13377280
0.011613778 0.034192223 0.041447338 13377280
0.018099423 0.032728698 0.040232144 13377280
0.024144886 0.031042656 0.03832322 13377280
0.028989425 0.028989283 0.036643572 13377280
-0.021846 0.035453003 0.035923999 13377280
-0.016862763 0.03675108 0.037200049 13377280
-0.0102938 0.037758473 0.038513269 13377280
-0.0037337299 0.038559977 0.038904794 13377280
0.0032585263 0.038596123 0.038897045 13377280
0.010293805 0.037758466 0.038513262 13377280
0.016862758 0.036751088 0.037200037 13377280
0.021846 0.035453003 0.035923999 13377280
-0.016664525 -0.029531652 0.043240018 13377280
-0.01018218 -0.03087651 0.04427034 13377280
-0.0035806056 -0.031493735 0.044835128 13377280
0.0031827765 -0.031509068 0.044843756 13377280
0.010182198 -0.030876525 0.044270348 13377280
0.016664522 -0.029531656 0.043240011 13377280
-0.023547798 -0.023547828 0.043690518 13377280
-0.017483268 -0.024480825 0.045940462 13377280
-0.011027433 -0.025329201 0.047482248 13377280
-0.004064539 -0.026453922 0.04799962 13377280
0.0037742145 -0.026458532 0.048012532 13377280
0.011027435 -0.025329186 0.047482237 13377280
0.017483233 -0.02448085 0.045940436 13377280
0.023547797 -0.023547854 0.043690518 13377280
-0.029531572 -0.01666452 0.043240018 13377280
-0.024480736 -0.017483396 0.045940496 13377280
-0.018936498 -0.018936573 0.047986206 13377280
0.018936504 -0.018936574 0.047986198 13377280
0.024480725 -0.017483376 0.045940462 13377280
0.029531563 -0.01666452 0.043240018 13377280
-0.030876447 -0.010182304 0.04427034 13377280
-0.025329085 -0.011027564 0.047482256 13377280
0.025329094 -0.011027564 0.047482248 13377280
0.030876454 -0.01018229 0.04427034 13377280
-0.031493675 -0.0035806953 0.04483512 13377280
-0.026453879 -0.0040646154 0.047999617 13377280
0.02645389 -0.0040646158 0.047999617 13377280
0.031493697 -0.0035806778 0.044835124 13377280
-0.031509008 0.0031827139 0.044843759 13377280
-0.026458452 0.003774178 0.048012521 13377280
0.026458459 0.0037741791 0.048012517 13377280
0.031509027 0.0031826983 0.044843756 13377280
-0.030876406 0.010182109 0.044270337 13377280
-0.025329089 0.011027344 0.047482267 13377280
0.025329078 0.011027348 0.047482256 13377280
0.0308764 0.010182109 0.044270344 13377280
-0.029531574 0.016664434 0.043240014 13377280
-0.024480717 0.017483201 0.045940511 13377280
-0.0189365 0.018936425 0.047986206 13377280
0.018936504 0.018936431 0.047986202 13377280
0.024480727 0.01748318 0.045940466 13377280
0.029531563 0.016664436 0.043240014 13377280
-0.023547772 0.023547707 0.043690521 13377280
-0.017483253 0.02448065 0.045940496 13377280
-0.011027435 0.025329009 0.047482256 13377280
-0.0040645394 0.02645384 0.047999606 13377280
0.003774215 0.026458459 0.048012529 13377280
0.011027438 0.025329039 0.047482241 13377280
0.017483272 0.024480639 0.045940451 13377280
0.023547739 0.023547692 0.043690525 13377280
-0.016664522 0.029531559 0.043240014 13377280
-0.010182176 0.030876391 0.044270337 13377280
-0.0035806245 0.031493649 0.044835109 13377280
0.0031827774 0.031508919 0.044843774 13377280
0.010182153 0.030876368 0.044270337 13377280
0.016664518 0.029531563 0.043240007 13377280
-0.009600943 -0.022212721 0.049357258 13377280
-0.0035614737 -0.022952974 0.049797833 13377280
0.0032222874 -0.022947473 0.049815673 13377280
0.0096009448 -0.022212721 0.049357258 13377280
-0.016476162 -0.016476212 0.049758464 13377280
-0.010346481 -0.017367182 0.051062401 13377280
-0.0035281524 -0.017278094 0.052016262 13377280
0.003336414 -0.01727614 0.052025817 13377280
0.01034647 -0.01736718 0.051062353 13377280
0.016476167 -0.016476205 0.049758457 13377280
-0.022212664 -0.0096010007 0.049357258 13377280
-0.017367121 -0.010346609 0.051062372 13377280
-0.010291595 -0.010291697 0.052959487 13377280
-0.0034849932 -0.010187984 0.053863354 13377280
0.0033587357 -0.010207376 0.053865075 13377280
0.010291613 -0.010291692 0.052959483 13377280
0.01736711 -0.010346618 0.051062368 13377280
0.022212666 -0.0096009457 0.049357258 13377280
-0.022952953 -0.003561605 0.049797822 13377280
-0.017277973 -0.0035282541 0.052016243 13377280
-0.010187868 -0.0034851357 0.053863376 13377280
-0.0028309764 -0.0028310581 0.054782912 13377280
0.0027900659 -0.0028485805 0.054783445 13377280
0.010187873 -0.0034851292 0.053863343 13377280
0.017277997 -0.0035282532 0.052016243 13377280
0.022952978 -0.0035616066 0.049797837 13377280
-0.022947455 0.003222238 0.049815666 13377280
-0.017276026 0.003336359 0.052025851 13377280
-0.01020728 0.0033586835 0.053865075 13377280
-0.0028485018 0.0027899879 0.054783456 13377280
0.0023748972 0.0023748311 0.054817226 13377280
0.01020729 0.0033586805 0.053865064 13377280
0.017276045 0.0033363453 0.052025806 13377280
0.022947477 0.003222238 0.049815666 13377280
-0.022212606 0.0096008871 0.049357258 13377280
-0.017367108 0.010346434 0.05106236 13377280
-0.010291606 0.010291512 0.05295952 13377280
-0.003484997 0.010187783 0.053863369 13377280
0.0033587341 0.010207207 0.053865049 13377280
0.010291622 0.01029151 0.052959509 13377280
0.017367113 0.010346418 0.051062386 13377280
0.022212667 0.0096008889 0.049357258 13377280
-0.016476164 0.016476071 0.049758453 13377280
-0.010346483 0.017367007 0.051062379 13377280
-0.0035281603 0.017277919 0.052016225 13377280
0.0033364231 0.017275967 0.052025843 13377280
0.010346493 0.017367022 0.051062398 13377280
0.016476169 0.016476074 0.049758464 13377280
-0.0096009448 0.022212608 0.049357258 13377280
-0.0035614739 0.022952888 0.049797826 13377280
0.0032222867 0.02294741 0.049815662 13377280
0.0096008889 0.02221261 0.049357258 13377280
