# .PCD v0.7 - Point Cloud Data file format
VERSION 0.7
FIELDS x y z rgb
SIZE 4 4 4 4
TYPE F F F F
COUNT 1 1 1 1
WIDTH 106
HEIGHT 1
VIEWPOINT 0 0 0 1 0 0 0
POINTS 106
DATA ascii
-0.027317809 -0.15402594 0.66300005 1.7632415e-38
-0.040686101 -0.14646995 0.66300005 1.7632415e-38
-0.03584164 -0.14662595 0.66269237 1.7632415e-38
-0.02786845 -0.14692882 0.66300005 1.7632415e-38
-0.022280484 -0.14898862 0.66300005 1.7632415e-38
-0.040492356 -0.14317632 0.66300005 1.7632415e-38
-0.035356518 -0.14222097 0.66250008 1.7632415e-38
-0.02944497 -0.14277077 0.66291672 1.7632415e-38
-0.033866011 -0.16933005 0.671 1.7632415e-38
-0.029400552 -0.16876295 0.67075002 1.7632415e-38
-0.018235544 -0.16882583 0.671 1.7632415e-38
-0.043049235 -0.16298471 0.6706295 1.7632415e-38
-0.035708018 -0.16408965 0.66875601 1.7632415e-38
-0.027744746 -0.16385625 0.6683076 1.7632415e-38
-0.020238344 -0.16385823 0.67037487 1.7632415e-38
-0.05082709 -0.15482977 0.67025012 1.7632415e-38
-0.043987487 -0.15608543 0.66758972 1.7632415e-38
-0.035557169 -0.15636392 0.66593039 1.7632415e-38
-0.028026329 -0.15636484 0.66525 1.7632415e-38
-0.020418216 -0.15612163 0.66657883 1.7632415e-38
-0.015180654 -0.15573151 0.67033339 1.7632415e-38
-0.05129946 -0.14812177 0.66985285 1.7632415e-38
-0.044268813 -0.14828523 0.66539532 1.7632415e-38
-0.03605637 -0.15090261 0.66399992 1.7632415e-38
-0.028781941 -0.14979546 0.66399986 1.7632415e-38
-0.019473638 -0.14784338 0.66466653 1.7632415e-38
-0.014912831 -0.14763989 0.66861123 1.7632415e-38
-0.050255388 -0.14149551 0.66942108 1.7632415e-38
-0.043824729 -0.13964409 0.66648936 1.7632415e-38
-0.035860822 -0.13825905 0.66497141 1.7632415e-38
-0.027883185 -0.13862854 0.66508818 1.7632415e-38
-0.020538757 -0.13996719 0.66598153 1.7632415e-38
-0.01499281 -0.14008297 0.67068744 1.7632415e-38
-0.04180574 -0.13351478 0.66730779 1.7632415e-38
-0.035531081 -0.13182206 0.66728246 1.7632415e-38
-0.027814202 -0.13150439 0.66748863 1.7632415e-38
-0.02066455 -0.13236682 0.66890228 1.7632415e-38
-0.015294326 -0.13529596 0.671 1.7632415e-38
-0.033627082 -0.12660733 0.67033339 1.7632415e-38
-0.027847568 -0.12630804 0.67042851 1.7632415e-38
-0.022000302 -0.12717822 0.671 1.7632415e-38
-0.049095787 -0.16916056 0.67800003 1.7632415e-38
-0.043435503 -0.17082946 0.6759001 1.7632415e-38
-0.036759216 -0.1719721 0.67476189 1.7632415e-38
-0.027399372 -0.17241995 0.67670375 1.7632415e-38
-0.021606911 -0.17175968 0.67573333 1.7632415e-38
-0.051290426 -0.16305664 0.67426908 1.7632415e-38
-0.045759074 -0.1654465 0.67320001 1.7632415e-38
-0.038292799 -0.16789921 0.67200005 1.7632415e-38
-0.02533216 -0.16731009 0.67200005 1.7632415e-38
-0.018851839 -0.16514997 0.67199999 1.7632415e-38
-0.01261232 -0.1630653 0.67408842 1.7632415e-38
-0.0073306863 -0.16147323 0.67800003 1.7632415e-38
-0.056132965 -0.1548088 0.67400002 1.7632415e-38
-0.053381648 -0.15705921 0.67253846 1.7632415e-38
-0.011278652 -0.1562591 0.67532367 1.7632415e-38
-0.0062797535 -0.1558568 0.67800027 1.7632415e-38
-0.056132965 -0.14771834 0.67400002 1.7632415e-38
-0.055180907 -0.14845824 0.67199999 1.7632415e-38
-0.011058333 -0.1480211 0.67379308 1.7632415e-38
-0.0055741305 -0.14795332 0.67761296 1.7632415e-38
-0.010913135 -0.13979839 0.67420578 1.7632415e-38
-0.0067630056 -0.14161633 0.67899996 1.7632415e-38
-0.017139418 -0.12983473 0.67422223 1.7632415e-38
-0.012682216 -0.13203849 0.67688102 1.7632415e-38
-0.032401599 -0.12430432 0.67200005 1.7632415e-38
-0.026987676 -0.12311801 0.67496151 1.7632415e-38
-0.020186609 -0.12447339 0.6773423 1.7632415e-38
0.33010882 0.094040044 0.67999995 1.7632415e-38
0.3380076 0.094785199 0.68000001 1.7632415e-38
0.33537626 0.1024591 0.67949998 1.7632415e-38
0.33804792 0.099970862 0.67960006 1.7632415e-38
0.34883991 0.10249396 0.67875004 1.7632415e-38
0.33273694 0.10463645 0.67816669 1.7632415e-38
0.34060267 0.10794329 0.67569244 1.7632415e-38
0.34753305 0.1069846 0.67711538 1.7632415e-38
0.35052669 0.11569711 0.67833334 1.7632415e-38
-0.0017954133 -0.14542788 0.68266672 1.7632415e-38
-0.0052508926 -0.13965216 0.68238896 1.7632415e-38
-0.0096515995 -0.12974142 0.6820001 1.7632415e-38
-0.0068194144 -0.1338861 0.68240011 1.7632415e-38
-0.016752956 -0.12445115 0.68250006 1.7632415e-38
-0.013545137 -0.12625434 0.68254554 1.7632415e-38
0.32968166 0.078823954 0.68375003 1.7632415e-38
0.34148708 0.076488286 0.68700004 1.7632415e-38
0.32560453 0.083349958 0.68400002 1.7632415e-38
0.33335793 0.08532051 0.68377781 1.7632415e-38
0.34074676 0.0823282 0.68550003 1.7632415e-38
0.34894636 0.085279793 0.68666673 1.7632415e-38
0.35568249 0.086663321 0.68650007 1.7632415e-38
0.32393095 0.089215733 0.68300003 1.7632415e-38
0.33234531 0.091608815 0.68230778 1.7632415e-38
0.34053063 0.090367965 0.68266672 1.7632415e-38
0.34672809 0.092230596 0.68466669 1.7632415e-38
0.33940032 0.099049889 0.68199998 1.7632415e-38
0.34726068 0.10004766 0.68263644 1.7632415e-38
0.34539789 0.069563501 0.69000006 1.7632415e-38
0.34439674 0.074790187 0.68800002 1.7632415e-38
0.34745824 0.082254909 0.68822229 1.7632415e-38
0.35645968 0.085043676 0.68800002 1.7632415e-38
-0.035652805 -0.19251759 0.73940003 1.7632415e-38
-0.029183006 -0.19262174 0.7398001 1.7632415e-38
-0.041518055 -0.19137633 0.74000001 1.7632415e-38
-0.036331695 -0.19137633 0.74000007 1.7632415e-38
-0.02915355 -0.19111772 0.73900002 1.7632415e-38
-0.02013791 -0.19033574 0.74100006 1.7632415e-38
