# .PCD v0.7 - Point Cloud Data file format
VERSION 0.7
FIELDS x y z rgb
SIZE 4 4 4 4
TYPE F F F F
COUNT 1 1 1 1
WIDTH 172
HEIGHT 1
VIEWPOINT 0 0 0 1 0 0 0
POINTS 172
DATA ascii
-0.030851653 -0.15658669 0.66400003 1.7632415e-38
-0.027941119 -0.15658669 0.66400003 1.7632415e-38
-0.043075893 -0.15134773 0.66400003 1.7632415e-38
-0.038834829 -0.15184669 0.66399997 1.7632415e-38
-0.033471134 -0.15120222 0.66400003 1.7632415e-38
-0.02718026 -0.15283814 0.6638999 1.7632415e-38
-0.021467669 -0.15234464 0.66383332 1.7632415e-38
-0.043011215 -0.1475317 0.66400003 1.7632415e-38
-0.038954157 -0.14709628 0.66320002 1.7632415e-38
-0.033278748 -0.14685357 0.66281819 1.7632415e-38
-0.027563453 -0.147467 0.66330004 1.7632415e-38
-0.02082053 -0.14706293 0.66373903 1.7632415e-38
-0.038803194 -0.1417148 0.66359997 1.7632415e-38
-0.033226084 -0.14126898 0.66291302 1.7632415e-38
-0.027635295 -0.14126006 0.66364992 1.7632415e-38
-0.02181188 -0.14220524 0.66399992 1.7632415e-38
-0.037836932 -0.13795927 0.66400003 1.7632415e-38
-0.033374116 -0.13776523 0.66400003 1.7632415e-38
-0.02968744 -0.13795927 0.66400003 1.7632415e-38
-0.033132546 -0.16919006 0.6708889 1.7632415e-38
-0.028235679 -0.16882583 0.671 1.7632415e-38
-0.018235544 -0.16882583 0.671 1.7632415e-38
-0.043971188 -0.16397282 0.671 1.7632415e-38
-0.039250482 -0.16474253 0.67004544 1.7632415e-38
-0.033370517 -0.16530564 0.66886371 1.7632415e-38
-0.026933152 -0.1649154 0.66922736 1.7632415e-38
-0.020521093 -0.16486475 0.67054534 1.7632415e-38
-0.017059056 -0.16764934 0.671 1.7632415e-38
-0.049988557 -0.15761021 0.67083335 1.7632415e-38
-0.044992477 -0.15891181 0.66952181 1.7632415e-38
-0.039313197 -0.15900147 0.66738099 1.7632415e-38
-0.033289012 -0.15943584 0.66617405 1.7632415e-38
-0.027140485 -0.1598749 0.66645467 1.7632415e-38
-0.020644661 -0.15897733 0.66812509 1.7632415e-38
-0.016141187 -0.15834217 0.6708889 1.7632415e-38
-0.054706629 -0.1505903 0.671 1.7632415e-38
-0.05109974 -0.15305881 0.66996002 1.7632415e-38
-0.045558479 -0.15291408 0.66668427 1.7632415e-38
-0.039118618 -0.15507321 0.66599995 1.7632415e-38
-0.033142641 -0.15444814 0.66600001 1.7632415e-38
-0.029387617 -0.15511213 0.66600001 1.7632415e-38
-0.0204351 -0.15501481 0.66599995 1.7632415e-38
-0.015664553 -0.1527888 0.66806257 1.7632415e-38
-0.051087752 -0.14714971 0.66980004 1.7632415e-38
-0.045709889 -0.14634594 0.66655564 1.7632415e-38
-0.01809966 -0.14479728 0.66600001 1.7632415e-38
-0.015389653 -0.14673251 0.66852647 1.7632415e-38
-0.050347015 -0.14171088 0.66950011 1.7632415e-38
-0.045015391 -0.14088753 0.66683996 1.7632415e-38
-0.039702483 -0.13910463 0.66599995 1.7632415e-38
-0.026507244 -0.13860837 0.66600001 1.7632415e-38
-0.020377873 -0.13992521 0.66627777 1.7632415e-38
-0.015564735 -0.14056584 0.67005014 1.7632415e-38
-0.048605908 -0.13761914 0.66800004 1.7632415e-38
-0.044321164 -0.13620108 0.66723073 1.7632415e-38
-0.039140109 -0.13494366 0.66636002 1.7632415e-38
-0.033247795 -0.13484091 0.66633338 1.7632415e-38
-0.027470388 -0.13501646 0.66672003 1.7632415e-38
-0.020914938 -0.13493492 0.6674062 1.7632415e-38
-0.015997676 -0.13562848 0.67089999 1.7632415e-38
-0.042877767 -0.13098277 0.67000002 1.7632415e-38
-0.038353216 -0.130477 0.66791677 1.7632415e-38
-0.033244517 -0.12908156 0.66864282 1.7632415e-38
-0.027047941 -0.12887502 0.668657 1.7632415e-38
-0.021271745 -0.1296525 0.6699999 1.7632415e-38
-0.031765141 -0.12529583 0.671 1.7632415e-38
-0.027412141 -0.12506053 0.671 1.7632415e-38
-0.043663498 -0.17050856 0.67554551 1.7632415e-38
-0.038832922 -0.17143089 0.67455554 1.7632415e-38
-0.033371635 -0.17173396 0.67375004 1.7632415e-38
-0.026370214 -0.17041816 0.67390913 1.7632415e-38
-0.021056363 -0.17019995 0.67333341 1.7632415e-38
-0.050547395 -0.16442987 0.67437488 1.7632415e-38
-0.046349224 -0.16542245 0.67350006 1.7632415e-38
-0.040256534 -0.16789921 0.67200011 1.7632415e-38
-0.02533216 -0.16731009 0.67200005 1.7632415e-38
-0.022386558 -0.16789921 0.67200005 1.7632415e-38
-0.014792958 -0.16396621 0.67229998 1.7632415e-38
-0.0097783403 -0.16326864 0.67600006 1.7632415e-38
-0.05516177 -0.15859236 0.67416668 1.7632415e-38
-0.051970139 -0.15960738 0.67313325 1.7632415e-38
-0.047718719 -0.16082975 0.67200005 1.7632415e-38
-0.013477536 -0.15916201 0.67300004 1.7632415e-38
-0.010269419 -0.15967372 0.6758334 1.7632415e-38
-0.055587027 -0.15319553 0.67275 1.7632415e-38
-0.012930346 -0.15301019 0.67388892 1.7632415e-38
-0.010303551 -0.15254816 0.67550004 1.7632415e-38
-0.0053336401 -0.1511198 0.67600006 1.7632415e-38
-0.055460569 -0.14749917 0.67299998 1.7632415e-38
-0.01272181 -0.1468493 0.67271423 1.7632415e-38
-0.009244292 -0.14708571 0.67454535 1.7632415e-38
-0.012713419 -0.1413655 0.67228568 1.7632415e-38
-0.0099014025 -0.14137137 0.674375 1.7632415e-38
-0.013785858 -0.13425891 0.67281246 1.7632415e-38
-0.010907236 -0.13604565 0.67514288 1.7632415e-38
-0.019047774 -0.12728411 0.67375004 1.7632415e-38
-0.015860414 -0.13059744 0.67463642 1.7632415e-38
-0.030875906 -0.12370145 0.67300004 1.7632415e-38
-0.026280889 -0.12360656 0.6742 1.7632415e-38
-0.022135539 -0.12460249 0.67433333 1.7632415e-38
0.3401677 0.10726543 0.67600006 1.7632415e-38
0.34604251 0.10630153 0.6759001 1.7632415e-38
0.33917284 0.10879574 0.67519999 1.7632415e-38
0.34486634 0.10883455 0.67562509 1.7632415e-38
-0.039823461 -0.17415334 0.67800003 1.7632415e-38
-0.031595066 -0.17466706 0.68000001 1.7632415e-38
-0.026826 -0.1750077 0.67999995 1.7632415e-38
-0.022840967 -0.17497887 0.6796667 1.7632415e-38
-0.049095791 -0.16916054 0.67800003 1.7632415e-38
-0.045784134 -0.17124479 0.67825007 1.7632415e-38
-0.030930992 -0.17309213 0.67850006 1.7632415e-38
-0.02557032 -0.17304961 0.67833334 1.7632415e-38
-0.022024497 -0.1732197 0.67900008 1.7632415e-38
-0.010104461 -0.16434607 0.67800003 1.7632415e-38
-0.0078854421 -0.15838248 0.67800015 1.7632415e-38
-0.00534942 -0.1575107 0.67800003 1.7632415e-38
-0.0077269408 -0.15354815 0.67800003 1.7632415e-38
-0.0046889982 -0.15288773 0.67800003 1.7632415e-38
-0.0065381802 -0.14651467 0.67800003 1.7632415e-38
-0.0037203543 -0.14695695 0.67937511 1.7632415e-38
-0.0072062002 -0.14052297 0.68000001 1.7632415e-38
-0.0045510465 -0.14118925 0.68176931 1.7632415e-38
-0.0084063169 -0.13466138 0.68077284 1.7632415e-38
-0.0045905188 -0.13671762 0.68300003 1.7632415e-38
-0.01436518 -0.12826258 0.68022734 1.7632415e-38
-0.010153866 -0.12961723 0.6813572 1.7632415e-38
-0.02576874 -0.12151096 0.67833334 1.7632415e-38
-0.02045078 -0.1229004 0.67944443 1.7632415e-38
-0.016152486 -0.12450711 0.68244451 1.7632415e-38
0.32872108 0.078437999 0.68300003 1.7632415e-38
0.3231326 0.088816553 0.68300003 1.7632415e-38
0.32752353 0.088018209 0.68300003 1.7632415e-38
0.33381057 0.08741945 0.68300003 1.7632415e-38
0.34129509 0.089215733 0.68300003 1.7632415e-38
0.32333219 0.090413265 0.68300003 1.7632415e-38
0.32902789 0.094631784 0.68033338 1.7632415e-38
0.3322286 0.092262156 0.68169236 1.7632415e-38
0.33850467 0.093728811 0.68099999 1.7632415e-38
0.33562306 0.1019388 0.68000001 1.7632415e-38
0.33887437 0.099146366 0.68071431 1.7632415e-38
0.34707671 0.10007914 0.68242866 1.7632415e-38
0.34917915 0.1012813 0.68040001 1.7632415e-38
0.32988089 0.10461088 0.67800003 1.7632415e-38
0.33435789 0.10431527 0.67840004 1.7632415e-38
0.33632001 0.10357466 0.67900002 1.7632415e-38
0.3466078 0.10430114 0.67909998 1.7632415e-38
0.35043082 0.10476009 0.67820001 1.7632415e-38
0.35008982 0.11095094 0.67800003 1.7632415e-38
0.35082132 0.11631726 0.67842859 1.7632415e-38
0.34148708 0.076488286 0.68700004 1.7632415e-38
0.34439674 0.074790187 0.68800002 1.7632415e-38
0.32760334 0.080551639 0.68400002 1.7632415e-38
0.3316009 0.079752117 0.68400002 1.7632415e-38
0.33759731 0.083349958 0.68400002 1.7632415e-38
0.34574419 0.081883654 0.68779999 1.7632415e-38
0.34909415 0.082600631 0.68775004 1.7632415e-38
0.3337996 0.085548639 0.68400002 1.7632415e-38
0.34668589 0.086098477 0.68680006 1.7632415e-38
0.35086787 0.085459657 0.68650007 1.7632415e-38
0.35594156 0.086123437 0.68700004 1.7632415e-38
0.34719157 0.09414348 0.68400002 1.7632415e-38
0.34719157 0.096542038 0.68400002 1.7632415e-38
0.34539789 0.069563501 0.69000006 1.7632415e-38
0.3502371 0.080451697 0.69000006 1.7632415e-38
-0.03762741 -0.1926738 0.74000001 1.7632415e-38
-0.033040691 -0.19241343 0.73900002 1.7632415e-38
-0.02790693 -0.19276059 0.74033338 1.7632415e-38
-0.042110682 -0.19111772 0.73900002 1.7632415e-38
-0.038976602 -0.19163495 0.74100006 1.7632415e-38
-0.033364616 -0.19111772 0.73900002 1.7632415e-38
-0.027857836 -0.19111772 0.73900002 1.7632415e-38
-0.02013791 -0.19033574 0.74100006 1.7632415e-38
