# .PCD v0.7 - Point Cloud Data file format
VERSION 0.7
FIELDS x y z rgba
SIZE 4 4 4 4
TYPE F F F U
COUNT 1 1 1 1
WIDTH 872
HEIGHT 1
VIEWPOINT 0 0 0 1 0 0 0
POINTS 872
DATA ascii
-0.0087326672 -0.024406334 -0.048505995 13377280
-0.0036397625 -0.025072142 -0.048772175 13377280
0.0033232619 -0.025094382 -0.048776019 13377280
0.0087330006 -0.024406331 -0.048505995 13377280
-0.017726051 -0.017726155 -0.04892635 13377280
-0.011637382 -0.019556072 -0.04996505 13377280
-0.004139625 -0.019920252 -0.050992176 13377280
0.0038961198 -0.019948758 -0.050993994 13377280
0.011637367 -0.019556072 -0.049965028 13377280
0.017726049 -0.017726207 -0.048926353 13377280
-0.024406334 -0.0087330006 -0.048505995 13377280
-0.019555977 -0.011637504 -0.049965024 13377280
-0.011810676 -0.011810768 -0.052295424 13377280
-0.0038843008 -0.011722555 -0.053492479 13377280
0.0037205061 -0.011735795 -0.053496957 13377280
0.01181068 -0.01181076 -0.052295428 13377280
0.019555975 -0.011637504 -0.049965061 13377280
0.024406334 -0.0087330006 -0.048505995 13377280
-0.025072098 -0.0036398103 -0.048772171 13377280
-0.019920198 -0.0041397302 -0.050992165 13377280
-0.011722441 -0.003884386 -0.053492498 13377280
-0.0032098866 -0.003209983 -0.054720175 13377280
0.0031694688 -0.0032204837 -0.054721463 13377280
0.011722432 -0.0038843891 -0.053492494 13377280
0.019920198 -0.0041397321 -0.05099215 13377280
0.025072094 -0.0036398098 -0.048772171 13377280
-0.025094343 0.0033232174 -0.048776019 13377280
-0.019948702 0.003896062 -0.050994005 13377280
-0.011735658 0.0037204472 -0.053497039 13377280
-0.0032203919 0.0031693915 -0.054721415 13377280
0.0027435569 0.0027434907 -0.054760709 13377280
0.01173566 0.0037204439 -0.053496983 13377280
0.019948695 0.0038960606 -0.050993986 13377280
0.025094345 0.0033232181 -0.048776016 13377280
-0.024406331 0.0087326672 -0.048505995 13377280
-0.019555971 0.011637315 -0.04996505 13377280
-0.011810682 0.01181063 -0.05229542 13377280
-0.003884302 0.011722412 -0.053492468 13377280
0.0037205068 0.01173564 -0.053497009 13377280
0.011810673 0.011810645 -0.05229542 13377280
0.019556014 0.011637303 -0.04996505 13377280
0.024406334 0.0087326672 -0.048505995 13377280
-0.017726054 0.017725999 -0.048926342 13377280
-0.011637361 0.019555906 -0.049965024 13377280
-0.0041396255 0.019920127 -0.050992176 13377280
0.0038961202 0.01994865 -0.050993975 13377280
0.011637377 0.019555908 -0.049965017 13377280
0.017726053 0.017725999 -0.048926342 13377280
-0.0087326672 0.024405999 -0.048505995 13377280
-0.0036397625 0.025072044 -0.048772171 13377280
0.0033232621 0.025094304 -0.048776008 13377280
0.0087330006 0.024406334 -0.048505995 13377280
-0.017093997 -0.0324485 -0.0409755 13377280
-0.011425694 -0.033793308 -0.041779399 13377280
-0.0041029528 -0.034564007 -0.042491011 13377280
0.0036755614 -0.034595963 -0.042490888 13377280
0.011425701 -0.033793308 -0.041779395 13377280
0.017093999 -0.0324485 -0.0409755 13377280
-0.025569541 -0.025569541 -0.041402806 13377280
-0.019571213 -0.027568541 -0.043245509 13377280
-0.012103383 -0.028075591 -0.045585494 13377280
-0.0043396088 -0.029014334 -0.046422381 13377280
0.003983919 -0.02904659 -0.04642373 13377280
0.012103374 -0.0280756 -0.045585513 13377280
0.019571206 -0.027568543 -0.043245498 13377280
0.02556954 -0.025569601 -0.041402802 13377280
-0.032448251 -0.017094251 -0.0409755 13377280
-0.027568432 -0.019571291 -0.043245509 13377280
-0.020652108 -0.020652192 -0.046492562 13377280
-0.014511125 -0.023219621 -0.047685012 13377280
0.014511 -0.023219623 -0.047685012 13377280
0.020652113 -0.020652229 -0.046492524 13377280
0.027568424 -0.019571271 -0.043245487 13377280
0.032448251 -0.017094251 -0.0409755 13377280
-0.033793163 -0.011425702 -0.041779391 13377280
-0.028075557 -0.012103506 -0.045585524 13377280
-0.023219623 -0.014511247 -0.047685012 13377280
0.023219625 -0.014511249 -0.047685012 13377280
0.028075557 -0.012103491 -0.045585532 13377280
0.033793166 -0.0114257 -0.041779399 13377280
-0.03456397 -0.0041030003 -0.042491008 13377280
-0.029014198 -0.004339769 -0.046422362 13377280
0.029014217 -0.0043397336 -0.046422355 13377280
0.034563977 -0.0041030222 -0.042491008 13377280
-0.034595955 0.0036755188 -0.042490888 13377280
-0.029046433 0.0039838376 -0.046423726 13377280
0.029046442 0.0039838208 -0.046423703 13377280
0.034595948 0.0036755202 -0.042490885 13377280
-0.033793125 0.011425601 -0.041779403 13377280
-0.028075552 0.012103308 -0.045585532 13377280
-0.023219621 0.014511 -0.047685012 13377280
0.023219625 0.014511001 -0.047685012 13377280
0.028075539 0.012103283 -0.045585502 13377280
0.033793144 0.011425599 -0.041779395 13377280
-0.032448251 0.017093997 -0.0409755 13377280
-0.027568432 0.019571135 -0.043245532 13377280
-0.020652121 0.020652082 -0.04649258 13377280
-0.014510999 0.023219377 -0.047685008 13377280
0.014511125 0.023219375 -0.047685012 13377280
0.020652112 0.020652058 -0.046492577 13377280
0.027568419 0.019571111 -0.043245494 13377280
0.032448251 0.017093999 -0.0409755 13377280
-0.025569329 0.02556926 -0.041402802 13377280
-0.019571185 0.027568357 -0.043245502 13377280
-0.012103366 0.028075477 -0.045585494 13377280
-0.0043396265 0.02901415 -0.046422366 13377280
0.0039839181 0.029046349 -0.04642377 13377280
0.012103367 0.028075505 -0.045585521 13377280
0.019571181 0.027568329 -0.043245509 13377280
0.025569336 0.025569264 -0.041402802 13377280
-0.017093997 0.032448001 -0.040975496 13377280
-0.011425667 0.033793133 -0.041779403 13377280
-0.0041029528 0.034563974 -0.042491019 13377280
0.0036755621 0.034595922 -0.042490881 13377280
0.011425666 0.033793133 -0.041779399 13377280
0.017093997 0.032447997 -0.040975496 13377280
-0.017133666 -0.040420003 -0.033121336 13377280
-0.011573778 -0.041482218 -0.034101781 13377280
-0.0041598286 -0.042234737 -0.034870598 13377280
0.0036398512 -0.042266689 -0.034870587 13377280
0.011573775 -0.041482214 -0.034101788 13377280
0.017133666 -0.040420003 -0.033121336 13377280
-0.026393129 -0.033887487 -0.03426297 13377280
-0.019926012 -0.035922103 -0.036383465 13377280
-0.012405698 -0.037609063 -0.038048092 13377280
-0.0044258395 -0.038640734 -0.038805455 13377280
0.0039516776 -0.038666721 -0.038813792 13377280
0.012405702 -0.037609074 -0.038048096 13377280
0.019926004 -0.035922129 -0.036383476 13377280
0.02639313 -0.033887487 -0.03426297 13377280
-0.033887368 -0.026393121 -0.034262966 13377280
-0.028524568 -0.028524624 -0.037211645 13377280
-0.022756126 -0.031073874 -0.039241754 13377280
0.022756126 -0.03107387 -0.039241754 13377280
0.028524552 -0.028524622 -0.037211638 13377280
0.03388736 -0.026393125 -0.034262966 13377280
-0.040420003 -0.017133666 -0.033121336 13377280
-0.035921931 -0.019926073 -0.036383476 13377280
-0.031073747 -0.022756256 -0.039241754 13377280
0.031073747 -0.022756252 -0.039241754 13377280
0.035921935 -0.019926069 -0.03638348 13377280
0.040420003 -0.017133666 -0.033121336 13377280
-0.041482143 -0.011574 -0.034101788 13377280
-0.037608963 -0.012405775 -0.038048096 13377280
0.037608974 -0.012405776 -0.038048089 13377280
0.041482106 -0.011573998 -0.034101788 13377280
-0.042234536 -0.004159858 -0.034870598 13377280
-0.03864057 -0.0044259988 -0.038805459 13377280
0.038640566 -0.0044259583 -0.038805455 13377280
0.042234555 -0.0041598575 -0.034870595 13377280
-0.042266507 0.0036397253 -0.034870591 13377280
-0.03866658 0.003951571 -0.038813792 13377280
0.03866658 0.0039515705 -0.038813796 13377280
0.042266492 0.0036397248 -0.034870587 13377280
-0.041482076 0.011573666 -0.034101788 13377280
-0.037608922 0.01240565 -0.038048081 13377280
0.037608955 0.012405653 -0.038048096 13377280
0.04148211 0.011573666 -0.034101792 13377280
-0.040420003 0.017133666 -0.033121336 13377280
-0.035921842 0.019925836 -0.036383465 13377280
-0.031073749 0.022756128 -0.039241757 13377280
0.031073749 0.022756001 -0.039241754 13377280
0.035921868 0.019925866 -0.036383465 13377280
0.040420003 0.017133666 -0.033121336 13377280
-0.033887364 0.026393086 -0.034262966 13377280
-0.028524477 0.028524389 -0.037211653 13377280
-0.022756128 0.031073375 -0.039241754 13377280
0.022756128 0.031073375 -0.039241754 13377280
0.028524464 0.028524393 -0.037211649 13377280
0.033887364 0.02639305 -0.03426297 13377280
-0.026393129 0.03388736 -0.03426297 13377280
-0.019925924 0.035921749 -0.036383476 13377280
-0.012405702 0.037608791 -0.038048092 13377280
-0.0044258395 0.038640447 -0.038805462 13377280
0.0039516422 0.038666468 -0.038813788 13377280
0.012405677 0.037608795 -0.038048089 13377280
0.019925945 0.035921723 -0.036383472 13377280
0.026393136 0.03388736 -0.03426297 13377280
-0.017133666 0.040419329 -0.033121336 13377280
-0.011573662 0.04148192 -0.034101792 13377280
-0.0041597718 0.042234443 -0.034870587 13377280
0.0036398503 0.042266347 -0.034870587 13377280
0.011573702 0.041481957 -0.034101788 13377280
0.017133668 0.040420003 -0.033121336 13377280
-0.0089915013 -0.048294004 -0.024729 13377280
-0.0039180904 -0.048649728 -0.02527355 13377280
0.0033153077 -0.04867547 -0.025281925 13377280
0.0089915013 -0.048294004 -0.024729 13377280
-0.025784545 -0.041114639 -0.02581092 13377280
-0.01968438 -0.042922735 -0.027978742 13377280
-0.012103873 -0.045390662 -0.028388664 13377280
-0.0044115004 -0.04617494 -0.029405471 13377280
0.003845924 -0.046208806 -0.029405676 13377280
0.012103871 -0.045390666 -0.028388642 13377280
0.019684384 -0.042922724 -0.027978735 13377280
0.025784545 -0.041114643 -0.025810916 13377280
-0.033929177 -0.0339293 -0.026747579 13377280
-0.02849116 -0.036938291 -0.028918944 13377280
-0.022736497 -0.039370831 -0.030924002 13377280
0.022736499 -0.039370831 -0.030924002 13377280
0.028491154 -0.036938298 -0.02891895 13377280
0.033929158 -0.033929337 -0.026747579 13377280
-0.041114546 -0.025784642 -0.025810916 13377280
-0.036938149 -0.028491318 -0.028918954 13377280
-0.031796999 -0.031796999 -0.031668998 13377280
0.031796999 -0.031796999 -0.031668998 13377280
0.036938168 -0.028491313 -0.028918954 13377280
0.041114543 -0.025784636 -0.025810916 13377280
-0.042922635 -0.019684434 -0.027978728 13377280
-0.039370667 -0.022736831 -0.030924002 13377280
0.039370667 -0.022736832 -0.030924002 13377280
0.042922642 -0.019684462 -0.027978728 13377280
-0.048293497 -0.0089915013 -0.024729 13377280
-0.045390546 -0.012103935 -0.028388666 13377280
0.045390531 -0.012103912 -0.028388651 13377280
0.048294004 -0.0089915013 -0.024729 13377280
-0.048649546 -0.0039181812 -0.02527355 13377280
-0.046174735 -0.0044116764 -0.029405467 13377280
0.046174794 -0.0044116764 -0.029405471 13377280
0.048649549 -0.0039181816 -0.02527355 13377280
-0.048675232 0.003315154 -0.025281925 13377280
-0.046208624 0.0038458479 -0.029405685 13377280
0.046208628 0.0038458197 -0.029405683 13377280
0.048675232 0.0033151533 -0.025281925 13377280
-0.048293501 0.0089915013 -0.024729 13377280
-0.045390561 0.012103786 -0.028388651 13377280
0.045390517 0.012103792 -0.028388651 13377280
0.048294004 0.0089915013 -0.024729 13377280
-0.042922586 0.019684121 -0.027978724 13377280
-0.039370667 0.022736497 -0.030924002 13377280
0.039370667 0.022736497 -0.030924002 13377280
0.042922597 0.019684138 -0.027978733 13377280
-0.041114267 0.025784362 -0.02581092 13377280
-0.036938038 0.028491087 -0.028918942 13377280
-0.031796999 0.031796999 -0.031668998 13377280
0.031796999 0.031796999 -0.031668998 13377280
0.036938064 0.02849107 -0.028918952 13377280
0.041114546 0.025784366 -0.025810916 13377280
-0.03392905 0.033929043 -0.026747577 13377280
-0.028491108 0.036937926 -0.028918942 13377280
-0.022736497 0.039370667 -0.030924002 13377280
0.022736497 0.039370667 -0.030924002 13377280
0.028491147 0.036937915 -0.028918944 13377280
0.03392908 0.033929046 -0.026747579 13377280
-0.025784457 0.041114271 -0.025810914 13377280
-0.019684253 0.042922411 -0.027978724 13377280
-0.012103832 0.045390457 -0.028388657 13377280
-0.0044114999 0.046174675 -0.029405465 13377280
0.0038459243 0.046208628 -0.029405683 13377280
0.012103855 0.045390468 -0.028388657 13377280
0.019684313 0.042922419 -0.027978733 13377280
0.025784455 0.041114271 -0.025810914 13377280
-0.0089915013 0.048293505 -0.024729 13377280
-0.0039179996 0.048649546 -0.02527355 13377280
0.0033152306 0.04867522 -0.025281925 13377280
0.0089915013 0.048293501 -0.024729 13377280
-0.017607447 -0.048779894 -0.018242558 13377280
-0.011779564 -0.049666137 -0.020244967 13377280
-0.0043738037 -0.050790593 -0.020404335 13377280
0.0037489757 -0.050823849 -0.020404326 13377280
0.011779571 -0.049666151 -0.020244977 13377280
0.017607443 -0.048779901 -0.018242557 13377280
-0.032704335 -0.040524002 -0.017677667 13377280
-0.027782589 -0.042846818 -0.020146016 13377280
-0.020739757 -0.046310727 -0.020993913 13377280
-0.0147655 -0.047612995 -0.023208246 13377280
0.014765499 -0.047612999 -0.023208244 13377280
0.020739723 -0.046310734 -0.020993909 13377280
0.027782597 -0.042846818 -0.020146023 13377280
0.032704335 -0.040524002 -0.017677667 13377280
-0.040523667 -0.032704335 -0.017677667 13377280
-0.036026645 -0.036026739 -0.020405775 13377280
-0.030916402 -0.039214596 -0.023024194 13377280
0.030916398 -0.039214604 -0.023024194 13377280
0.036026608 -0.03602672 -0.020405788 13377280
0.040523667 -0.032704335 -0.017677667 13377280
-0.042846724 -0.027782641 -0.020146029 13377280
-0.039214399 -0.030916598 -0.023024194 13377280
0.039214399 -0.030916397 -0.023024194 13377280
0.042846698 -0.027782641 -0.020146016 13377280
-0.048779666 -0.017607557 -0.018242558 13377280
-0.046310641 -0.020739876 -0.020993911 13377280
0.0463106 -0.020739879 -0.020993916 13377280
0.048779666 -0.017607557 -0.018242557 13377280
-0.049666047 -0.01177974 -0.020244977 13377280
-0.047612995 -0.01476575 -0.023208244 13377280
0.047612995 -0.014765751 -0.023208246 13377280
0.049666032 -0.011779767 -0.020244967 13377280
-0.05079044 -0.0043739169 -0.020404328 13377280
0.050790414 -0.0043739174 -0.020404331 13377280
-0.050823711 0.0037489044 -0.020404335 13377280
0.050823696 0.0037488814 -0.020404335 13377280
-0.049666014 0.011779567 -0.020244973 13377280
-0.047612995 0.014765499 -0.023208246 13377280
0.047612991 0.014765501 -0.023208246 13377280
0.049666002 0.011779565 -0.020244975 13377280
-0.04877967 0.017607335 -0.018242557 13377280
-0.046310611 0.020739578 -0.020993911 13377280
0.046310574 0.020739578 -0.020993909 13377280
0.048779663 0.017607333 -0.018242558 13377280
-0.042846702 0.027782507 -0.020146022 13377280
-0.039214402 0.030916402 -0.023024194 13377280
0.039214402 0.030916398 -0.023024194 13377280
0.042846709 0.027782461 -0.020146022 13377280
-0.040523663 0.032704335 -0.017677667 13377280
-0.036026601 0.036026467 -0.020405784 13377280
-0.030916398 0.039214399 -0.023024196 13377280
0.030916398 0.039214402 -0.023024196 13377280
0.036026604 0.036026418 -0.020405784 13377280
0.040523663 0.032704335 -0.017677667 13377280
-0.032704335 0.040523667 -0.017677667 13377280
-0.027782574 0.04284656 -0.020146029 13377280
-0.020739693 0.046310499 -0.020993918 13377280
-0.0147655 0.047612745 -0.023208246 13377280
0.0147655 0.047612745 -0.023208246 13377280
0.020739697 0.04631051 -0.020993905 13377280
0.027782565 0.04284656 -0.020146022 13377280
0.032704335 0.040523667 -0.017677667 13377280
-0.017607333 0.04877967 -0.018242558 13377280
-0.011779566 0.049665868 -0.020244965 13377280
-0.0043738051 0.050790235 -0.02040433 13377280
0.0037489752 0.050823469 -0.020404333 13377280
0.011779567 0.049665861 -0.020244965 13377280
0.017607333 0.04877967 -0.018242557 13377280
-0.024359999 -0.048394665 -0.0094009992 13377280
-0.019749872 -0.049822338 -0.011871924 13377280
-0.012373569 -0.052103139 -0.012036003 13377280
-0.0045947144 -0.053354748 -0.012035999 13377280
0.0039382856 -0.053389728 -0.012035999 13377280
0.012373521 -0.052103117 -0.012035998 13377280
0.019749872 -0.049822334 -0.011871925 13377280
0.024360001 -0.048394669 -0.0094009992 13377280
-0.033971764 -0.041643213 -0.011298639 13377280
-0.028312985 -0.04539581 -0.012204489 13377280
-0.023330402 -0.047502596 -0.014926801 13377280
0.023330402 -0.0475026 -0.014926799 13377280
0.028312951 -0.045395825 -0.01220449 13377280
0.033971764 -0.041643199 -0.011298641 13377280
-0.041643079 -0.033971768 -0.011298635 13377280
-0.037774228 -0.037774358 -0.012674121 13377280
0.03777419 -0.037774347 -0.012674124 13377280
0.041643091 -0.033971764 -0.011298636 13377280
-0.048394665 -0.024360001 -0.0094009992 13377280
-0.045395695 -0.028313074 -0.012204485 13377280
0.045395665 -0.028313067 -0.012204485 13377280
0.048394669 -0.024360001 -0.0094009992 13377280
-0.049822159 -0.019749895 -0.011871926 13377280
-0.0475026 -0.023330402 -0.014926799 13377280
0.0475026 -0.0233304 -0.014926801 13377280
0.049822129 -0.019749898 -0.011871923 13377280
-0.05210299 -0.01237369 -0.012035999 13377280
0.052102979 -0.012373689 -0.012036001 13377280
-0.053354535 -0.0045947381 -0.012036 13377280
0.053354543 -0.0045947395 -0.012036 13377280
-0.053389516 0.0039381846 -0.012035999 13377280
0.053389497 0.0039382051 -0.012035998 13377280
-0.052102976 0.012373499 -0.012035999 13377280
0.052102979 0.012373497 -0.012036 13377280
-0.049822096 0.0197498 -0.011871925 13377280
-0.047502596 0.023330199 -0.014926801 13377280
0.047502596 0.0233302 -0.014926801 13377280
0.049822144 0.019749777 -0.011871925 13377280
-0.048394665 0.024359668 -0.0094009992 13377280
-0.045395657 0.028312812 -0.012204485 13377280
0.04539568 0.028312812 -0.012204487 13377280
0.048394334 0.024359668 -0.0094009992 13377280
-0.041643005 0.033971719 -0.011298638 13377280
-0.037774168 0.037774116 -0.012674123 13377280
0.037774142 0.037774127 -0.012674123 13377280
0.041643001 0.033971719 -0.01129864 13377280
-0.033971757 0.041642923 -0.011298638 13377280
-0.028312894 0.045395616 -0.012204489 13377280
-0.0233304 0.047502201 -0.014926799 13377280
0.0233304 0.047502398 -0.014926801 13377280
0.028312886 0.045395572 -0.012204485 13377280
0.033971764 0.041642893 -0.01129864 13377280
-0.024359999 0.048394334 -0.0094009992 13377280
-0.019749846 0.049821995 -0.011871924 13377280
-0.012373526 0.052102797 -0.012035999 13377280
-0.0045946189 0.053354457 -0.012036 13377280
0.0039382651 0.053389359 -0.012035997 13377280
0.012373523 0.052102763 -0.012036 13377280
0.019749854 0.049821984 -0.011871925 13377280
0.024360001 0.048394334 -0.0094009992 13377280
-0.025244096 -0.048654996 -0.0040438003 13377280
-0.020337038 -0.050854489 -0.004043797 13377280
-0.011996344 -0.053421825 -0.004043798 13377280
-0.0040302007 -0.054636799 -0.004043798 13377280
0.0033584335 -0.054667022 -0.004043798 13377280
0.011996257 -0.053421818 -0.0040437966 13377280
0.020337004 -0.050854433 -0.004043797 13377280
0.025244102 -0.048655003 -0.0040438003 13377280
-0.034755278 -0.042349469 -0.004043798 13377280
-0.029309917 -0.046285443 -0.0040437966 13377280
0.029309921 -0.046285443 -0.004043798 13377280
0.034755278 -0.042349461 -0.004043797 13377280
-0.042349391 -0.034755316 -0.0040437989 13377280
-0.038754534 -0.038754605 -0.0040437998 13377280
0.03875453 -0.038754605 -0.0040437998 13377280
0.042349394 -0.034755316 -0.004043798 13377280
-0.048654895 -0.025244098 -0.0040438003 13377280
-0.046285287 -0.02930996 -0.0040437984 13377280
0.04628529 -0.02930996 -0.0040437989 13377280
0.048654903 -0.025244102 -0.0040438003 13377280
-0.050854292 -0.020337163 -0.0040437966 13377280
0.050854333 -0.020337166 -0.0040437966 13377280
-0.053421654 -0.011996431 -0.0040437975 13377280
0.053421631 -0.011996435 -0.004043798 13377280
-0.054636683 -0.0040303613 -0.004043798 13377280
0.054636672 -0.0040303613 -0.004043798 13377280
-0.054666918 0.0033583667 -0.004043797 13377280
0.054666929 0.0033583664 -0.004043797 13377280
-0.053421631 0.011996116 -0.0040437998 13377280
0.053421635 0.011996087 -0.004043797 13377280
-0.050854288 0.020336974 -0.0040437966 13377280
0.050854288 0.020336939 -0.0040437975 13377280
-0.048654895 0.025244001 -0.0040438003 13377280
-0.046285257 0.029309843 -0.004043797 13377280
0.046285242 0.029309804 -0.0040437998 13377280
0.048654903 0.025244001 -0.0040438003 13377280
-0.042349301 0.034755234 -0.0040437975 13377280
-0.038754474 0.0387544 -0.0040437998 13377280
0.038754467 0.038754404 -0.0040438003 13377280
0.042349301 0.03475523 -0.0040437975 13377280
-0.034755271 0.042349309 -0.0040437989 13377280
-0.029309878 0.046285253 -0.004043798 13377280
0.029309876 0.046285208 -0.0040437975 13377280
0.034755278 0.042349301 -0.0040437984 13377280
-0.025244098 0.048654892 -0.0040437998 13377280
-0.020336967 0.050854132 -0.0040437966 13377280
-0.01199623 0.053421516 -0.0040437966 13377280
-0.0040301201 0.054636523 -0.0040437975 13377280
0.0033584337 0.054666713 -0.0040437961 13377280
0.011996232 0.053421438 -0.0040437994 13377280
0.020336969 0.050854128 -0.004043797 13377280
0.025244096 0.048654899 -0.0040437998 13377280
-0.025258081 -0.048682008 0.0033698336 13377280
-0.020348303 -0.050882623 0.0033698317 13377280
-0.012002977 -0.053451389 0.0033698319 13377280
-0.0040324349 -0.054667044 0.0033698312 13377280
0.0033603336 -0.05469726 0.0033698312 13377280
0.012002907 -0.053451419 0.0033698326 13377280
0.020348279 -0.050882593 0.003369831 13377280
0.025258079 -0.048682004 0.003369834 13377280
-0.034774564 -0.042372953 0.0033698315 13377280
-0.029326167 -0.046311043 0.0033698312 13377280
0.029326135 -0.046311039 0.003369831 13377280
0.034774564 -0.042372953 0.0033698294 13377280
-0.042372834 -0.034774598 0.0033698312 13377280
-0.038776007 -0.038776059 0.0033698336 13377280
0.038776003 -0.038776066 0.0033698333 13377280
0.04237286 -0.034774594 0.0033698315 13377280
-0.048681837 -0.025258087 0.0033698333 13377280
-0.046310902 -0.029326202 0.0033698315 13377280
0.046310894 -0.029326232 0.0033698322 13377280
0.048681829 -0.025258087 0.0033698331 13377280
-0.050882436 -0.02034842 0.0033698301 13377280
0.050882492 -0.020348419 0.0033698315 13377280
-0.053451248 -0.012003048 0.0033698299 13377280
0.053451248 -0.01200305 0.0033698317 13377280
-0.054666892 -0.0040326011 0.0033698329 13377280
0.054666933 -0.0040326011 0.0033698317 13377280
-0.054697175 0.0033602763 0.0033698305 13377280
0.054697193 0.0033602493 0.003369831 13377280
-0.053451236 0.012002763 0.0033698299 13377280
0.053451221 0.012002742 0.0033698326 13377280
-0.050882373 0.020348163 0.0033698312 13377280
0.050882433 0.020348199 0.0033698315 13377280
-0.048681825 0.025257999 0.0033698333 13377280
-0.046310857 0.029326029 0.0033698315 13377280
0.046310868 0.029325999 0.0033698317 13377280
0.048681844 0.025257997 0.0033698336 13377280
-0.042372759 0.034774464 0.0033698312 13377280
-0.038775958 0.038775891 0.0033698333 13377280
0.038775958 0.038775839 0.0033698331 13377280
0.042372774 0.034774471 0.003369831 13377280
-0.034774531 0.042372726 0.0033698312 13377280
-0.029326061 0.046310879 0.003369831 13377280
0.029326065 0.046310857 0.0033698312 13377280
0.03477456 0.042372741 0.0033698319 13377280
-0.025258081 0.048681829 0.0033698333 13377280
-0.020348249 0.050882265 0.003369831 13377280
-0.012002881 0.053451136 0.0033698319 13377280
-0.0040323995 0.054666713 0.0033698315 13377280
0.0033603332 0.054696962 0.0033698303 13377280
0.012002881 0.053451095 0.003369831 13377280
0.020348247 0.050882213 0.0033698312 13377280
0.025258085 0.048681829 0.0033698333 13377280
-0.024359999 -0.048394669 0.0094009992 13377280
-0.019749869 -0.049822319 0.011872072 13377280
-0.012373569 -0.052103098 0.01203614 13377280
-0.0045946916 -0.053354684 0.01203614 13377280
0.0039382647 -0.053389665 0.012036138 13377280
0.012373521 -0.052103098 0.012036137 13377280
0.019749876 -0.049822319 0.011872071 13377280
0.024360001 -0.048394665 0.0094009992 13377280
-0.033971768 -0.041643206 0.011298759 13377280
-0.028312944 -0.045395806 0.01220465 13377280
-0.023330402 -0.047502596 0.014926799 13377280
0.023330402 -0.0475026 0.014926801 13377280
0.02831292 -0.045395799 0.012204656 13377280
0.033971764 -0.041643173 0.011298757 13377280
-0.041643042 -0.033971764 0.011298758 13377280
-0.03777419 -0.037774339 0.012674269 13377280
0.037774157 -0.03777428 0.012674273 13377280
0.041643091 -0.033971768 0.011298759 13377280
-0.048394665 -0.024360001 0.0094009992 13377280
-0.04539568 -0.028313071 0.012204655 13377280
0.045395687 -0.028313071 0.012204658 13377280
0.048394665 -0.024360001 0.0094009992 13377280
-0.049822137 -0.019749898 0.01187207 13377280
-0.047502596 -0.023330402 0.014926801 13377280
0.047502596 -0.023330402 0.014926799 13377280
0.049822137 -0.019749898 0.011872072 13377280
-0.052102905 -0.012373688 0.01203614 13377280
0.052102987 -0.012373689 0.01203614 13377280
-0.053354546 -0.0045947381 0.012036136 13377280
0.05335452 -0.0045947148 0.012036139 13377280
-0.053389531 0.0039382041 0.01203614 13377280
0.053389501 0.0039381837 0.012036144 13377280
-0.052102882 0.012373475 0.012036137 13377280
0.05210299 0.012373501 0.01203614 13377280
-0.049822066 0.019749776 0.011872074 13377280
-0.0475026 0.023330199 0.014926799 13377280
0.047502406 0.0233302 0.014926799 13377280
0.049822122 0.019749768 0.011872071 13377280
-0.048394676 0.024359666 0.0094009992 13377280
-0.045395654 0.028312815 0.01220466 13377280
0.045395631 0.028312802 0.012204652 13377280
0.048394334 0.024359666 0.0094009992 13377280
-0.041642971 0.033971723 0.011298758 13377280
-0.037774127 0.037774093 0.012674276 13377280
0.037774164 0.037774105 0.012674275 13377280
0.04164296 0.033971719 0.011298758 13377280
-0.033971757 0.041642919 0.011298758 13377280
-0.028312903 0.045395598 0.012204655 13377280
-0.0233304 0.047502197 0.014926801 13377280
0.023330402 0.047502197 0.014926801 13377280
0.028312894 0.045395583 0.012204661 13377280
0.033971764 0.041642893 0.011298759 13377280
-0.024360001 0.048394334 0.0094009992 13377280
-0.019749846 0.049821995 0.011872074 13377280
-0.012373523 0.052102804 0.012036137 13377280
-0.0045946413 0.053354342 0.012036139 13377280
0.0039382661 0.053389344 0.012036138 13377280
0.012373523 0.052102748 0.012036139 13377280
0.019749846 0.049821999 0.01187207 13377280
0.024360001 0.048394334 0.0094009992 13377280
-0.017607443 -0.048779786 0.018242998 13377280
-0.011779565 -0.049666133 0.020245258 13377280
-0.0043738047 -0.050790574 0.020404669 13377280
0.0037489764 -0.050823841 0.020404657 13377280
0.011779565 -0.049666144 0.020245256 13377280
0.017607331 -0.048779786 0.018242994 13377280
-0.032704335 -0.040524002 0.017678332 13377280
-0.027782589 -0.042846754 0.020146318 13377280
-0.020739729 -0.046310741 0.020994207 13377280
-0.014765501 -0.047612995 0.023209 13377280
0.0147655 -0.047612991 0.023209 13377280
0.020739697 -0.046310738 0.020994212 13377280
0.027782559 -0.042846758 0.020146308 13377280
0.032704335 -0.040524006 0.017678332 13377280
-0.040523663 -0.032704335 0.017678332 13377280
-0.036026597 -0.03602666 0.020406088 13377280
-0.030916398 -0.039214604 0.023024797 13377280
0.030916397 -0.039214607 0.023024799 13377280
0.036026597 -0.036026705 0.020406082 13377280
0.040523663 -0.032704335 0.017678332 13377280
-0.042846713 -0.027782658 0.020146307 13377280
-0.039214399 -0.030916397 0.023024799 13377280
0.039214399 -0.030916402 0.023024799 13377280
0.042846713 -0.027782643 0.020146314 13377280
-0.048779678 -0.017607445 0.018242998 13377280
-0.046310607 -0.020739822 0.020994205 13377280
0.046310619 -0.020739842 0.020994214 13377280
0.04877967 -0.017607557 0.018243 13377280
-0.049666006 -0.011779739 0.020245247 13377280
-0.047612991 -0.014765751 0.023209 13377280
0.047612995 -0.014765751 0.023208998 13377280
0.049666014 -0.011779768 0.020245254 13377280
-0.05079037 -0.0043739174 0.020404674 13377280
0.050790381 -0.0043739164 0.020404654 13377280
-0.050823677 0.003748904 0.020404657 13377280
0.050823659 0.0037488814 0.020404663 13377280
-0.049665954 0.011779564 0.02024525 13377280
-0.047612742 0.0147655 0.023208998 13377280
0.047612742 0.0147655 0.023208998 13377280
0.04966595 0.011779536 0.020245248 13377280
-0.048779663 0.017607331 0.018242996 13377280
-0.046310563 0.02073957 0.020994209 13377280
0.046310548 0.020739578 0.020994209 13377280
0.048779666 0.017607331 0.018242996 13377280
-0.04284665 0.027782472 0.02014632 13377280
-0.039214402 0.030916398 0.023024799 13377280
0.039214399 0.030916397 0.023024797 13377280
0.042846687 0.027782435 0.020146314 13377280
-0.040523663 0.032704335 0.017678332 13377280
-0.036026549 0.036026362 0.020406082 13377280
-0.030916398 0.039214402 0.023024799 13377280
0.030916398 0.039214402 0.023024799 13377280
0.036026586 0.03602637 0.020406077 13377280
0.040523667 0.032704335 0.017678332 13377280
-0.032704335 0.040523667 0.017678332 13377280
-0.027782574 0.042846508 0.020146314 13377280
-0.02073966 0.046310462 0.020994211 13377280
-0.0147655 0.047612496 0.023209 13377280
0.014765501 0.047612753 0.023209 13377280
0.020739693 0.046310492 0.020994209 13377280
0.027782574 0.042846505 0.02014632 13377280
0.032704335 0.040523663 0.017678332 13377280
-0.017607335 0.048779674 0.018242998 13377280
-0.011779568 0.049665872 0.020245258 13377280
-0.0043737763 0.050790165 0.020404672 13377280
0.0037489757 0.050823431 0.020404665 13377280
0.011779568 0.049665865 0.020245245 13377280
0.017607333 0.048779674 0.018243 13377280
-0.0089915013 -0.048294004 0.024729 13377280
-0.0039180894 -0.048649546 0.02527355 13377280
0.0033152301 -0.048675306 0.025281925 13377280
0.0089915013 -0.048294004 0.024729 13377280
-0.025784545 -0.041114554 0.025810916 13377280
-0.019684335 -0.042922664 0.027978733 13377280
-0.012103873 -0.045390636 0.028388647 13377280
-0.0044115009 -0.046174914 0.029405471 13377280
0.0038459236 -0.046208784 0.02940568 13377280
0.012103882 -0.045390617 0.028388649 13377280
0.019684335 -0.042922691 0.027978728 13377280
0.025784541 -0.041114543 0.025810916 13377280
-0.033929154 -0.03392924 0.026747582 13377280
-0.028491139 -0.03693828 0.028918944 13377280
-0.022736497 -0.039370831 0.030924002 13377280
0.022736497 -0.039370831 0.030924002 13377280
0.028491162 -0.036938276 0.028918942 13377280
0.033929165 -0.033929251 0.026747586 13377280
-0.041114543 -0.025784547 0.025810914 13377280
-0.036938157 -0.028491301 0.028918946 13377280
-0.031796999 -0.031796999 0.031668998 13377280
0.031796999 -0.031796999 0.031668998 13377280
0.036938146 -0.028491266 0.028918944 13377280
0.04111455 -0.025784547 0.025810916 13377280
-0.042922571 -0.01968444 0.027978731 13377280
-0.039370667 -0.022736832 0.030924002 13377280
0.039370667 -0.022736831 0.030924002 13377280
0.042922601 -0.01968444 0.027978728 13377280
-0.048293501 -0.0089915013 0.024729 13377280
-0.04539055 -0.012103918 0.028388647 13377280
0.045390546 -0.012103915 0.028388649 13377280
0.048293497 -0.0089915013 0.024729 13377280
-0.048649549 -0.003918272 0.02527355 13377280
-0.046174746 -0.0044116774 0.029405469 13377280
0.046174739 -0.0044116769 0.029405465 13377280
0.048649546 -0.0039180899 0.02527355 13377280
-0.048675224 0.0033151542 0.025281923 13377280
-0.046208616 0.0038458467 0.029405683 13377280
0.046208616 0.0038458197 0.029405683 13377280
0.048675232 0.0033151531 0.025281925 13377280
-0.048293501 0.0089915013 0.024729 13377280
-0.045390513 0.012103791 0.028388657 13377280
0.045390517 0.012103789 0.028388649 13377280
0.048293501 0.0089915013 0.024729 13377280
-0.042922493 0.019684078 0.027978731 13377280
-0.039370671 0.022736499 0.030924002 13377280
0.039370667 0.022736497 0.030924002 13377280
0.042922568 0.019684104 0.027978716 13377280
-0.041114271 0.025784366 0.025810916 13377280
-0.036938004 0.028491072 0.028918942 13377280
-0.031796999 0.031796999 0.031668998 13377280
0.031796999 0.031796999 0.031668998 13377280
0.036938012 0.028491059 0.02891895 13377280
0.04111436 0.025784362 0.025810916 13377280
-0.033929046 0.033929046 0.026747582 13377280
-0.028491087 0.036937889 0.028918946 13377280
-0.022736495 0.0393705 0.030924002 13377280
0.022736499 0.039370496 0.030924002 13377280
0.028491108 0.036937911 0.028918946 13377280
0.033929035 0.033929046 0.026747579 13377280
-0.02578436 0.041114267 0.025810916 13377280
-0.019684212 0.042922389 0.027978718 13377280
-0.012103837 0.045390427 0.028388655 13377280
-0.0044114999 0.046174668 0.029405467 13377280
0.0038459231 0.046208542 0.029405683 13377280
0.012103857 0.045390453 0.028388651 13377280
0.01968425 0.042922419 0.027978731 13377280
0.025784452 0.041114271 0.025810916 13377280
-0.0089915013 0.048293501 0.024729 13377280
-0.0039179991 0.048649453 0.02527355 13377280
0.0033152292 0.048675235 0.025281927 13377280
0.0089915013 0.048293501 0.024729 13377280
-0.017133668 -0.040420003 0.033121336 13377280
-0.011573739 -0.041482132 0.034101792 13377280
-0.00415983 -0.042234708 0.034870598 13377280
0.0036398 -0.042266667 0.034870591 13377280
0.011573702 -0.041482184 0.034101788 13377280
0.017133668 -0.040420003 0.033121336 13377280
-0.026393123 -0.033887405 0.034262966 13377280
-0.019925984 -0.035922065 0.036383472 13377280
-0.0124057 -0.037608989 0.038048089 13377280
-0.0044258381 -0.038640685 0.038805455 13377280
0.0039516781 -0.038666692 0.038813796 13377280
0.012405699 -0.037608992 0.038048089 13377280
0.019925976 -0.035922069 0.036383469 13377280
0.02639313 -0.033887479 0.03426297 13377280
-0.033887375 -0.026393136 0.034262966 13377280
-0.028524535 -0.028524613 0.037211649 13377280
-0.022756128 -0.031073751 0.039241754 13377280
0.022756128 -0.031073751 0.039241754 13377280
0.028524518 -0.028524626 0.037211649 13377280
0.033887368 -0.026393136 0.034262966 13377280
-0.040420003 -0.017133666 0.033121336 13377280
-0.035921916 -0.019926077 0.036383469 13377280
-0.031073747 -0.022756252 0.03924175 13377280
0.031073749 -0.022756254 0.039241754 13377280
0.035921894 -0.019926077 0.036383469 13377280
0.040420003 -0.017133668 0.033121336 13377280
-0.041482069 -0.011573924 0.034101792 13377280
-0.037608936 -0.012405774 0.038048092 13377280
0.03760897 -0.012405776 0.038048096 13377280
0.04148211 -0.011573996 0.034101788 13377280
-0.04223454 -0.0041598585 0.034870606 13377280
-0.03864057 -0.0044259583 0.038805455 13377280
0.038640566 -0.0044259587 0.038805462 13377280
0.04223451 -0.0041598575 0.034870598 13377280
-0.042266443 0.0036397253 0.034870587 13377280
-0.038666584 0.003951571 0.038813792 13377280
0.038666572 0.0039515705 0.038813796 13377280
0.042266466 0.0036397264 0.034870587 13377280
-0.041482028 0.011573666 0.034101792 13377280
-0.03760891 0.012405648 0.038048096 13377280
0.037608922 0.012405652 0.038048085 13377280
0.041482065 0.011573666 0.034101784 13377280
-0.040420003 0.017133666 0.033121336 13377280
-0.035921827 0.019925818 0.036383469 13377280
-0.031073745 0.022755999 0.039241754 13377280
0.031073749 0.022756003 0.039241757 13377280
0.035921831 0.019925825 0.036383472 13377280
0.040420003 0.017133668 0.033121336 13377280
-0.033887364 0.026393093 0.034262966 13377280
-0.028524429 0.028524373 0.037211649 13377280
-0.022756128 0.031073375 0.039241754 13377280
0.022756128 0.031073375 0.039241757 13377280
0.028524445 0.02852438 0.037211653 13377280
0.03388736 0.026393056 0.034262966 13377280
-0.026393086 0.033887368 0.034262966 13377280
-0.019925926 0.035921741 0.036383472 13377280
-0.012405679 0.037608795 0.038048096 13377280
-0.00442588 0.038640443 0.038805455 13377280
0.0039516422 0.038666464 0.038813796 13377280
0.012405675 0.037608765 0.0380481 13377280
0.019925941 0.035921723 0.036383472 13377280
0.026393123 0.03388736 0.034262966 13377280
-0.017133668 0.040419333 0.033121336 13377280
-0.011573662 0.041481886 0.034101788 13377280
-0.0041597709 0.04223438 0.034870598 13377280
0.0036398254 0.042266347 0.034870587 13377280
0.011573666 0.041481949 0.034101792 13377280
0.017133668 0.040419664 0.033121336 13377280
-0.017093999 -0.0324485 0.0409755 13377280
-0.011425668 -0.033793312 0.041779395 13377280
-0.0041029532 -0.034563981 0.042491008 13377280
0.0036755633 -0.034595963 0.042490885 13377280
0.0114257 -0.033793308 0.041779406 13377280
0.017093997 -0.0324485 0.0409755 13377280
-0.025569541 -0.02556954 0.041402798 13377280
-0.019571209 -0.027568538 0.043245513 13377280
-0.01210338 -0.028075596 0.045585513 13377280
-0.004339607 -0.029014351 0.046422381 13377280
0.0039839186 -0.02904659 0.04642377 13377280
0.012103368 -0.028075587 0.045585491 13377280
0.0195712 -0.027568549 0.043245506 13377280
0.025569538 -0.025569607 0.041402802 13377280
-0.032448251 -0.017094249 0.0409755 13377280
-0.027568439 -0.019571297 0.043245502 13377280
-0.020652108 -0.020652201 0.046492547 13377280
-0.014511125 -0.023219626 0.047685008 13377280
0.014511001 -0.023219621 0.047685016 13377280
0.020652112 -0.020652225 0.046492532 13377280
0.027568422 -0.019571275 0.043245487 13377280
0.032448255 -0.017094249 0.040975496 13377280
-0.03379317 -0.011425697 0.041779391 13377280
-0.028075531 -0.012103499 0.045585498 13377280
-0.023219625 -0.01451125 0.047685012 13377280
0.023219623 -0.014511246 0.047685012 13377280
0.028075552 -0.012103488 0.045585517 13377280
0.033793129 -0.011425695 0.041779399 13377280
-0.034563977 -0.004103024 0.042491008 13377280
-0.029014215 -0.0043397523 0.046422414 13377280
0.029014235 -0.0043397332 0.046422374 13377280
0.034563962 -0.004103024 0.042491008 13377280
-0.034595955 0.0036755183 0.042490885 13377280
-0.029046429 0.0039838371 0.046423726 13377280
0.029046433 0.0039838194 0.046423756 13377280
0.034595966 0.0036755214 0.042490885 13377280
-0.033793129 0.011425599 0.041779403 13377280
-0.028075535 0.012103283 0.045585494 13377280
-0.023219625 0.014510999 0.047685012 13377280
0.023219621 0.014511001 0.047685016 13377280
0.028075544 0.012103284 0.045585517 13377280
0.033793136 0.011425597 0.041779399 13377280
-0.032448001 0.017093999 0.040975496 13377280
-0.027568422 0.019571124 0.043245509 13377280
-0.020652119 0.020652087 0.04649251 13377280
-0.014511001 0.023219375 0.047685008 13377280
0.014511126 0.023219502 0.047685012 13377280
0.020652121 0.020652054 0.046492565 13377280
0.02756842 0.019571109 0.043245498 13377280
0.032448251 0.017093999 0.0409755 13377280
-0.025569333 0.025569199 0.041402794 13377280
-0.019571189 0.027568359 0.043245491 13377280
-0.012103378 0.028075503 0.045585494 13377280
-0.0043396256 0.029014153 0.046422414 13377280
0.0039839195 0.029046368 0.046423733 13377280
0.012103364 0.028075492 0.045585487 13377280
0.019571172 0.027568327 0.043245491 13377280
0.025569333 0.025569193 0.041402802 13377280
-0.017093997 0.032448001 0.0409755 13377280
-0.011425664 0.033793129 0.04177941 13377280
-0.0041029537 0.034563966 0.042491019 13377280
0.0036755616 0.034595918 0.042490885 13377280
0.01142567 0.033793133 0.041779399 13377280
0.017093999 0.032447997 0.0409755 13377280
-0.0087330015 -0.024406334 0.048505995 13377280
-0.0036397625 -0.025072137 0.048772164 13377280
0.0033232619 -0.025094388 0.048776004 13377280
0.0087330006 -0.024406331 0.048505995 13377280
-0.017726054 -0.017726213 0.048926353 13377280
-0.0116374 -0.019556083 0.04996505 13377280
-0.0041396259 -0.019920301 0.050992131 13377280
0.00389613 -0.019948794 0.050993931 13377280
0.011637379 -0.019556075 0.049965028 13377280
0.017726051 -0.017726213 0.048926342 13377280
-0.024406334 -0.0087330006 0.048505995 13377280
-0.019556019 -0.0116375 0.049965046 13377280
-0.011810689 -0.011810789 0.052295413 13377280
-0.0038843094 -0.011722591 0.053492475 13377280
0.0037205198 -0.011735814 0.053496994 13377280
0.011810712 -0.011810784 0.052295368 13377280
0.019556014 -0.011637507 0.049965013 13377280
0.024406331 -0.0087330006 0.048505995 13377280
-0.025072092 -0.0036398103 0.048772171 13377280
-0.019920221 -0.0041397396 0.05099212 13377280
-0.011722503 -0.0038844186 0.053492468 13377280
-0.0032099374 -0.0032100356 0.054720152 13377280
0.0031695107 -0.003220536 0.054721434 13377280
0.011722505 -0.0038844156 0.053492505 13377280
0.019920221 -0.0041397265 0.050992135 13377280
0.025072094 -0.003639811 0.048772171 13377280
-0.025094341 0.0033232167 0.048776008 13377280
-0.019948721 0.0038960786 0.050993994 13377280
-0.011735717 0.0037204497 0.053497009 13377280
-0.0032204378 0.003169433 0.054721449 13377280
0.0027435923 0.0027435243 0.054760713 13377280
0.011735736 0.0037204477 0.053497009 13377280
0.019948721 0.0038960711 0.050993972 13377280
0.025094351 0.0033232181 0.048776019 13377280
-0.024406331 0.0087326672 0.048505995 13377280
-0.019556005 0.01163731 0.049965017 13377280
-0.011810704 0.011810657 0.052295398 13377280
-0.0038843069 0.01172242 0.053492486 13377280
0.0037205173 0.011735648 0.053497005 13377280
0.011810717 0.011810659 0.052295372 13377280
0.019556008 0.011637297 0.049965035 13377280
0.024406331 0.0087326672 0.048505995 13377280
-0.017726054 0.017725997 0.048926342 13377280
-0.011637391 0.019555911 0.049965035 13377280
-0.0041396362 0.019920157 0.05099215 13377280
0.003896137 0.019948654 0.050993986 13377280
0.011637404 0.019555902 0.049965028 13377280
0.017726051 0.017725999 0.048926346 13377280
-0.0087330006 0.024406331 0.048505995 13377280
-0.0036397625 0.025072047 0.048772175 13377280
0.0033232605 0.025094302 0.048776016 13377280
0.0087330006 0.024406334 0.048505995 13377280
