# .PCD v0.7 - Point Cloud Data file format
VERSION 0.7
FIELDS x y z rgba
SIZE 4 4 4 4
TYPE F F F U
COUNT 1 1 1 1
WIDTH 536
HEIGHT 1
VIEWPOINT 0 0 0 1 0 0 0
POINTS 536
DATA ascii
-0.0043975324 -0.021188237 -0.050494425 13377280
0.0041226875 -0.021218216 -0.050497748 13377280
-0.013786134 -0.013786247 -0.051291108 13377280
-0.0048878375 -0.014539736 -0.052655242 13377280
0.0047016321 -0.01456848 -0.052658472 13377280
0.013786133 -0.013786238 -0.051291149 13377280
-0.021188166 -0.0043977001 -0.050494421 13377280
-0.014539599 -0.0048879222 -0.052655272 13377280
-0.0039163115 -0.0039164061 -0.054576624 13377280
0.0038615852 -0.0039369166 -0.054577898 13377280
0.014539607 -0.0048879264 -0.052655261 13377280
0.021188164 -0.0043977005 -0.050494425 13377280
-0.021218164 0.0041225925 -0.050497741 13377280
-0.014568363 0.0047015916 -0.052658539 13377280
-0.0039368267 0.0038615225 -0.054577935 13377280
0.0034481706 0.0034480959 -0.054626279 13377280
0.014568361 0.0047015902 -0.052658498 13377280
0.021218151 0.0041226242 -0.050497744 13377280
-0.013786136 0.013786077 -0.051291123 13377280
-0.0048878351 0.014539567 -0.052655254 13377280
0.0047016321 0.014568301 -0.052658476 13377280
0.013786147 0.013786098 -0.05129116 13377280
-0.004397532 0.021188132 -0.050494425 13377280
0.004122688 0.021218147 -0.050497744 13377280
-0.020894 -0.030454502 -0.040751997 13377280
-0.014135596 -0.0322963 -0.04209229 13377280
-0.0050770007 -0.033398777 -0.043235857 13377280
0.0046539176 -0.033431996 -0.043241762 13377280
0.014135594 -0.032296304 -0.042092294 13377280
0.020894 -0.030454502 -0.040751997 13377280
-0.030454502 -0.020894499 -0.040751997 13377280
-0.024051612 -0.024051677 -0.043030567 13377280
-0.014909821 -0.024866698 -0.046519551 13377280
-0.0053719976 -0.025909141 -0.048066773 13377280
0.005062086 -0.025943067 -0.048071094 13377280
0.014909809 -0.024866702 -0.046519537 13377280
0.024051622 -0.024051705 -0.043030545 13377280
0.030454498 -0.020894499 -0.040751997 13377280
-0.032296166 -0.014135636 -0.042092294 13377280
-0.024866583 -0.014909931 -0.046519555 13377280
-0.01732821 -0.0173283 -0.049153324 13377280
0.01732821 -0.017328328 -0.049153332 13377280
0.024866581 -0.01490992 -0.046519525 13377280
0.032296199 -0.014135639 -0.042092301 13377280
-0.033398725 -0.0050770668 -0.04323585 13377280
-0.025909085 -0.0053721094 -0.048066791 13377280
0.025909089 -0.0053720986 -0.048066773 13377280
0.03339871 -0.0050770654 -0.043235857 13377280
-0.033431921 0.0046538687 -0.043241732 13377280
-0.025943013 0.005061999 -0.048071109 13377280
0.025943033 0.005061999 -0.048071105 13377280
0.033431936 0.0046538548 -0.043241762 13377280
-0.032296136 0.014135499 -0.042092294 13377280
-0.024866585 0.014909782 -0.046519529 13377280
-0.017328206 0.017328117 -0.049153328 13377280
0.017328208 0.017328095 -0.049153313 13377280
0.024866587 0.014909767 -0.046519544 13377280
0.032296136 0.01413547 -0.042092301 13377280
-0.030454498 0.020894 -0.040751997 13377280
-0.024051575 0.024051519 -0.043030567 13377280
-0.014909812 0.024866519 -0.046519533 13377280
-0.005371999 0.025909018 -0.048066776 13377280
0.0050620865 0.025942968 -0.04807109 13377280
0.014909826 0.024866527 -0.046519514 13377280
0.024051556 0.02405151 -0.043030567 13377280
0.030454498 0.020894 -0.040751997 13377280
-0.020894 0.030454502 -0.040751997 13377280
-0.014135548 0.032296047 -0.042092297 13377280
-0.0050770012 0.033398718 -0.043235857 13377280
0.0046539181 0.033431906 -0.043241754 13377280
0.014135554 0.032296043 -0.042092301 13377280
0.020894 0.030454502 -0.040751997 13377280
-0.020778667 -0.040448334 -0.030926995 13377280
-0.014079123 -0.041878123 -0.032581944 13377280
-0.0051068324 -0.042967401 -0.033746243 13377280
0.0045732842 -0.043002918 -0.03375151 13377280
0.014079125 -0.041878119 -0.032581937 13377280
0.020778665 -0.04044833 -0.030926995 13377280
-0.031659473 -0.03165967 -0.03187627 13377280
-0.024620418 -0.034431905 -0.034811281 13377280
-0.015681161 -0.036906697 -0.03743824 13377280
-0.005556942 -0.038553994 -0.038706288 13377280
0.0050938907 -0.038581427 -0.038721032 13377280
0.015681162 -0.03690673 -0.037438236 13377280
0.024620418 -0.034431905 -0.034811262 13377280
0.031659473 -0.031659666 -0.03187627 13377280
-0.040448334 -0.020779001 -0.030926995 13377280
-0.034431774 -0.024620539 -0.034811266 13377280
-0.027518556 -0.027518567 -0.0387692 13377280
0.027518559 -0.027518557 -0.038769197 13377280
0.034431778 -0.024620527 -0.034811262 13377280
0.040448338 -0.020779001 -0.030926995 13377280
-0.041878019 -0.014079241 -0.032581933 13377280
-0.036906566 -0.015681239 -0.037438244 13377280
0.036906589 -0.015681243 -0.03743824 13377280
0.041878004 -0.014079239 -0.032581929 13377280
-0.04296726 -0.0051069357 -0.033746224 13377280
-0.038553819 -0.0055570588 -0.038706291 13377280
0.038553815 -0.00555703 -0.038706288 13377280
0.042967252 -0.0051069334 -0.033746243 13377280
-0.043002754 0.0045731785 -0.033751521 13377280
-0.038581252 0.0050938055 -0.038721025 13377280
0.038581256 0.0050938064 -0.038721029 13377280
0.043002766 0.0045731817 -0.033751521 13377280
-0.041877985 0.014078977 -0.032581918 13377280
-0.036906518 0.015681066 -0.037438244 13377280
0.036906555 0.015681064 -0.037438251 13377280
0.041877985 0.014078979 -0.032581933 13377280
-0.040448334 0.020778665 -0.030926995 13377280
-0.034431711 0.024620323 -0.034811262 13377280
-0.027518449 0.027518336 -0.0387692 13377280
0.027518407 0.027518339 -0.038769197 13377280
0.034431741 0.024620315 -0.034811255 13377280
0.040448334 0.020778667 -0.030926995 13377280
-0.031659339 0.031659141 -0.031876266 13377280
-0.024620367 0.034431625 -0.034811243 13377280
-0.01568114 0.036906425 -0.03743824 13377280
-0.0055569406 0.038553707 -0.038706291 13377280
0.0050938618 0.038581166 -0.038721025 13377280
0.015681123 0.036906421 -0.03743824 13377280
0.024620382 0.034431595 -0.034811262 13377280
0.031659402 0.031659134 -0.03187627 13377280
-0.020778665 0.040448334 -0.030926995 13377280
-0.014078993 0.041877806 -0.032581922 13377280
-0.0051068002 0.042967174 -0.033746231 13377280
0.0045732833 0.043002658 -0.033751499 13377280
0.014079046 0.041877858 -0.032581925 13377280
0.020778665 0.040448334 -0.030926995 13377280
-0.0042863633 -0.050384641 -0.021498917 13377280
0.0036269224 -0.05040976 -0.021524925 13377280
-0.030765999 -0.040436503 -0.021047998 13377280
-0.024167374 -0.04272382 -0.024483811 13377280
-0.015105881 -0.046140425 -0.025477538 13377280
-0.0055876994 -0.047951669 -0.026076369 13377280
0.0050194552 -0.047970962 -0.026119146 13377280
0.015105883 -0.046140425 -0.025477543 13377280
0.024167353 -0.042723797 -0.024483815 13377280
0.030765997 -0.040436499 -0.021047998 13377280
-0.040436503 -0.030765997 -0.021047998 13377280
-0.034515422 -0.034515537 -0.024952909 13377280
-0.027744271 -0.038461361 -0.02773145 13377280
0.027744271 -0.038461361 -0.027731454 13377280
0.034515422 -0.034515534 -0.024952918 13377280
0.040436499 -0.030765999 -0.021047998 13377280
-0.042723764 -0.024167432 -0.024483813 13377280
-0.038461171 -0.02774436 -0.02773145 13377280
0.038461179 -0.02774437 -0.027731447 13377280
0.042723738 -0.024167437 -0.024483819 13377280
-0.046140343 -0.015105938 -0.025477532 13377280
0.046140358 -0.015105946 -0.025477538 13377280
-0.050384358 -0.004286455 -0.021498917 13377280
-0.047951389 -0.0055878079 -0.026076386 13377280
0.047951423 -0.0055878097 -0.026076389 13377280
0.050384369 -0.0042864555 -0.021498917 13377280
-0.050409541 0.003626846 -0.021524925 13377280
-0.047970742 0.0050194045 -0.026119143 13377280
0.047970742 0.0050193719 -0.026119145 13377280
0.050409537 0.003626846 -0.021524927 13377280
-0.046140291 0.015105739 -0.025477525 13377280
0.046140291 0.015105738 -0.025477534 13377280
-0.042723686 0.024167186 -0.024483813 13377280
-0.038461123 0.027744275 -0.027731448 13377280
0.038461134 0.027744271 -0.027731454 13377280
0.042723726 0.024167174 -0.024483819 13377280
-0.040436503 0.030765498 -0.021047998 13377280
-0.034515303 0.034515236 -0.024952907 13377280
-0.027744276 0.038461044 -0.027731448 13377280
0.027744275 0.038461041 -0.027731454 13377280
0.034515336 0.034515239 -0.024952922 13377280
0.040436503 0.030765498 -0.021047998 13377280
-0.030765997 0.040436503 -0.021047998 13377280
-0.024167262 0.042723563 -0.024483815 13377280
-0.015105821 0.046140116 -0.02547753 13377280
-0.0055876779 0.047951266 -0.026076382 13377280
0.0050194399 0.04797063 -0.026119139 13377280
0.015105837 0.046140131 -0.025477538 13377280
0.024167307 0.042723589 -0.024483815 13377280
0.030765999 0.040436499 -0.021047998 13377280
-0.0042863637 0.050384101 -0.021498917 13377280
0.0036269224 0.050409243 -0.021524925 13377280
-0.013658137 -0.051220939 -0.014135232 13377280
-0.0051632491 -0.052423365 -0.015294241 13377280
0.0045178444 -0.052462999 -0.015294238 13377280
0.013658121 -0.051220931 -0.014135225 13377280
-0.032405131 -0.041838963 -0.014609455 13377280
-0.025160203 -0.046239581 -0.015266662 13377280
-0.017115081 -0.049070969 -0.017774666 13377280
0.017115084 -0.049070958 -0.017774666 13377280
0.025160173 -0.046239581 -0.015266662 13377280
0.032405123 -0.041838966 -0.014609456 13377280
-0.04183884 -0.032405186 -0.014609456 13377280
-0.037126869 -0.037126973 -0.015888788 13377280
0.037126839 -0.037126962 -0.015888793 13377280
0.04183884 -0.03240519 -0.014609454 13377280
-0.046239421 -0.025160253 -0.015266659 13377280
0.046239432 -0.025160253 -0.015266663 13377280
-0.051220883 -0.013658254 -0.014135235 13377280
-0.049070805 -0.017115204 -0.017774669 13377280
0.049070802 -0.017115206 -0.017774671 13377280
0.051220872 -0.013658254 -0.014135232 13377280
-0.052423179 -0.0051633404 -0.015294242 13377280
0.052423202 -0.0051633385 -0.01529424 13377280
-0.052462831 0.0045177811 -0.015294238 13377280
0.052462809 0.0045177815 -0.015294238 13377280
-0.051220868 0.01365807 -0.014135232 13377280
-0.049070802 0.01711504 -0.017774668 13377280
0.049070794 0.017115036 -0.017774668 13377280
0.051220868 0.013658046 -0.014135229 13377280
-0.046239372 0.025160046 -0.015266663 13377280
0.046239402 0.025160022 -0.015266663 13377280
-0.041838828 0.03240509 -0.014609457 13377280
-0.037126839 0.037126787 -0.015888792 13377280
0.037126843 0.037126735 -0.015888792 13377280
0.041838825 0.03240509 -0.014609455 13377280
-0.032405101 0.041838765 -0.014609456 13377280
-0.025160151 0.04623922 -0.015266662 13377280
-0.01711504 0.049070802 -0.017774668 13377280
0.01711504 0.049070794 -0.017774673 13377280
0.025160151 0.046239261 -0.015266663 13377280
0.032405104 0.041838653 -0.014609459 13377280
-0.013658095 0.051220715 -0.014135229 13377280
-0.0051632142 0.052423093 -0.015294241 13377280
0.0045178272 0.052462727 -0.015294238 13377280
0.013658094 0.051220682 -0.014135229 13377280
-0.021400001 -0.05038463 -0.0046525463 13377280
-0.015202465 -0.05242331 -0.0053845681 13377280
-0.0053521222 -0.054340795 -0.00538457 13377280
0.0046830005 -0.054381907 -0.0053845681 13377280
0.015202425 -0.05242331 -0.0053845705 13377280
0.021399911 -0.050384548 -0.0046525463 13377280
-0.033593852 -0.043046597 -0.00538457 13377280
-0.026051244 -0.047977284 -0.0055635106 13377280
0.026051249 -0.047977325 -0.0055635097 13377280
0.033593856 -0.04304659 -0.0053845719 13377280
-0.04304646 -0.033593897 -0.00538457 13377280
-0.038649388 -0.038649496 -0.0053845681 13377280
0.038649395 -0.038649488 -0.0053845677 13377280
0.043046478 -0.033593897 -0.0053845691 13377280
-0.050384376 -0.021400001 -0.0046525467 13377280
-0.047977142 -0.026051302 -0.0055635115 13377280
0.047977142 -0.026051294 -0.005563512 13377280
0.050384365 -0.021399997 -0.0046525463 13377280
-0.052423172 -0.015202611 -0.0053845714 13377280
0.052423153 -0.015202604 -0.0053845719 13377280
-0.054340631 -0.0053522252 -0.0053845709 13377280
0.054340605 -0.0053522247 -0.0053845709 13377280
-0.054381732 0.0046828953 -0.0053845686 13377280
0.054381724 0.0046828948 -0.0053845732 13377280
-0.052423138 0.015202338 -0.0053845686 13377280
0.052423142 0.015202333 -0.0053845681 13377280
-0.050384279 0.021399913 -0.0046525453 13377280
-0.047977112 0.026051162 -0.0055635101 13377280
0.047977135 0.026051134 -0.0055635087 13377280
0.050384365 0.021399824 -0.0046525467 13377280
-0.043046411 0.033593792 -0.0053845719 13377280
-0.038649287 0.038649194 -0.0053845691 13377280
0.038649295 0.038649201 -0.0053845695 13377280
0.043046422 0.0335938 -0.0053845686 13377280
-0.033593867 0.043046393 -0.0053845709 13377280
-0.026051201 0.047977034 -0.0055635101 13377280
0.026051203 0.047977004 -0.0055635115 13377280
0.033593874 0.043046411 -0.0053845705 13377280
-0.021399913 0.050384104 -0.0046525463 13377280
-0.015202425 0.052423064 -0.0053845705 13377280
-0.0053519802 0.054340485 -0.0053845719 13377280
0.0046829837 0.054381583 -0.0053845709 13377280
0.015202421 0.052423008 -0.0053845714 13377280
0.021399913 0.050384101 -0.0046525453 13377280
-0.021441234 -0.050409768 0.0039367699 13377280
-0.015213966 -0.05246295 0.0047114999 13377280
-0.0053561442 -0.054381914 0.0047114976 13377280
0.0046865642 -0.054423042 0.0047114962 13377280
0.015213935 -0.05246295 0.0047114985 13377280
0.02144116 -0.050409682 0.0039367699 13377280
-0.033619288 -0.043079145 0.0047115008 13377280
-0.026103718 -0.047996644 0.0049089803 13377280
0.026103688 -0.047996651 0.0049089789 13377280
0.033619288 -0.043079179 0.004711499 13377280
-0.043079026 -0.033619333 0.0047115004 13377280
-0.038678635 -0.038678724 0.0047114971 13377280
0.038678583 -0.038678724 0.0047114994 13377280
0.043079048 -0.033619329 0.004711499 13377280
-0.050409459 -0.021441232 0.0039367694 13377280
-0.047996491 -0.026103752 0.0049089785 13377280
0.04799648 -0.026103744 0.0049089789 13377280
0.050409552 -0.02144124 0.0039367699 13377280
-0.052462805 -0.015214091 0.0047114999 13377280
0.052462827 -0.015214101 0.004711498 13377280
-0.054381695 -0.0053562694 0.0047115004 13377280
0.054381732 -0.0053562662 0.0047115008 13377280
-0.054422852 0.0046864846 0.0047114985 13377280
0.054422863 0.0046864371 0.0047114985 13377280
-0.052462794 0.015213824 0.0047114957 13377280
0.052462805 0.015213826 0.004711498 13377280
-0.050409298 0.02144108 0.0039367694 13377280
-0.047996446 0.026103592 0.0049089789 13377280
0.047996484 0.026103564 0.0049089803 13377280
0.050409462 0.021441158 0.0039367704 13377280
-0.043078978 0.033619169 0.004711499 13377280
-0.038678505 0.038678464 0.004711498 13377280
0.038678549 0.038678415 0.004711498 13377280
0.043078989 0.033619169 0.0047114985 13377280
-0.033619255 0.043078937 0.004711498 13377280
-0.026103659 0.047996361 0.0049089808 13377280
0.026103649 0.04799635 0.0049089794 13377280
0.033619266 0.043078948 0.004711499 13377280
-0.021441158 0.050409239 0.0039367694 13377280
-0.015213935 0.052462738 0.0047114971 13377280
-0.0053560557 0.054381572 0.004711498 13377280
0.0046865446 0.05442268 0.0047114994 13377280
0.015213934 0.052462686 0.004711499 13377280
0.021441158 0.050409235 0.0039367699 13377280
-0.013658141 -0.05122092 0.014135523 13377280
-0.0051632496 -0.052423265 0.015294495 13377280
0.0045178286 -0.052462939 0.015294497 13377280
0.013658118 -0.051220916 0.014135523 13377280
-0.032405131 -0.041838933 0.014609731 13377280
-0.025160175 -0.046239529 0.01526691 13377280
-0.017115081 -0.049070895 0.017774874 13377280
0.017115036 -0.049070939 0.017774884 13377280
0.025160147 -0.046239562 0.015266906 13377280
0.032405123 -0.041838896 0.014609728 13377280
-0.041838817 -0.032405194 0.014609728 13377280
-0.037126854 -0.037126955 0.015889036 13377280
0.037126832 -0.037126925 0.015889032 13377280
0.041838851 -0.032405194 0.014609729 13377280
-0.046239428 -0.025160238 0.015266906 13377280
0.046239413 -0.02516026 0.015266908 13377280
-0.051220804 -0.013658257 0.014135519 13377280
-0.049070794 -0.017115166 0.017774874 13377280
0.049070794 -0.017115207 0.01777488 13377280
0.051220883 -0.013658257 0.014135519 13377280
-0.052423179 -0.0051633385 0.015294498 13377280
0.052423149 -0.0051633208 0.015294492 13377280
-0.052462835 0.004517782 0.015294498 13377280
0.052462779 0.0045177811 0.015294494 13377280
-0.051220771 0.013658024 0.014135514 13377280
-0.049070802 0.017115042 0.017774882 13377280
0.04907079 0.017115043 0.017774884 13377280
0.051220879 0.013658046 0.01413552 13377280
-0.046239343 0.025160028 0.015266914 13377280
0.046239343 0.025160018 0.015266907 13377280
-0.041838787 0.032405101 0.014609725 13377280
-0.037126817 0.037126686 0.015889039 13377280
0.03712685 0.037126679 0.015889041 13377280
0.041838784 0.032405086 0.014609735 13377280
-0.032405097 0.041838691 0.014609729 13377280
-0.025160139 0.046239201 0.01526691 13377280
-0.017115036 0.049070746 0.01777488 13377280
0.017115042 0.04907079 0.017774882 13377280
0.025160149 0.046239223 0.015266914 13377280
0.03240509 0.041838668 0.014609731 13377280
-0.013658094 0.051220711 0.014135514 13377280
-0.0051632151 0.052422982 0.015294497 13377280
0.0045178276 0.052462693 0.015294501 13377280
0.013658089 0.051220667 0.014135514 13377280
-0.0042863633 -0.050384637 0.021498917 13377280
0.0036269224 -0.05040976 0.021524923 13377280
-0.030765999 -0.040436503 0.021047998 13377280
-0.02416734 -0.042723779 0.024483975 13377280
-0.015105868 -0.046140436 0.025477646 13377280
-0.0055876952 -0.047951542 0.026076537 13377280
0.0050194399 -0.04797091 0.026119296 13377280
0.015105847 -0.046140406 0.025477663 13377280
0.024167314 -0.042723767 0.024483966 13377280
0.030765999 -0.040436503 0.021047998 13377280
-0.040436503 -0.030765999 0.021047998 13377280
-0.034515385 -0.034515474 0.024953065 13377280
-0.027744276 -0.038461313 0.027731495 13377280
0.027744269 -0.038461313 0.027731497 13377280
0.034515381 -0.034515496 0.024953062 13377280
0.040436503 -0.030765997 0.021047998 13377280
-0.042723734 -0.024167417 0.024483968 13377280
-0.038461182 -0.02774437 0.027731495 13377280
0.038461175 -0.027744366 0.027731497 13377280
0.042723734 -0.024167424 0.024483968 13377280
-0.046140295 -0.015105913 0.02547765 13377280
0.046140302 -0.015105924 0.025477644 13377280
-0.050384365 -0.0042864545 0.021498917 13377280
-0.047951359 -0.0055878288 0.026076535 13377280
0.047951382 -0.0055877902 0.026076525 13377280
0.050384369 -0.0042864541 0.021498917 13377280
-0.050409537 0.0036269228 0.021524927 13377280
-0.047970753 0.0050193896 0.026119284 13377280
0.047970731 0.0050193709 0.026119299 13377280
0.050409548 0.0036268453 0.021524925 13377280
-0.046140194 0.015105743 0.025477657 13377280
0.046140239 0.01510572 0.025477653 13377280
-0.042723611 0.024167156 0.024483975 13377280
-0.038461041 0.027744275 0.027731501 13377280
0.038461138 0.027744269 0.027731501 13377280
0.042723678 0.024167128 0.02448396 13377280
-0.040436503 0.030765498 0.021047998 13377280
-0.034515273 0.034515224 0.02495306 13377280
-0.027744269 0.038460996 0.027731501 13377280
0.027744276 0.038460996 0.027731489 13377280
0.03451528 0.034515228 0.02495306 13377280
0.040436499 0.030765498 0.021047998 13377280
-0.030765997 0.040436499 0.021047998 13377280
-0.024167243 0.042723566 0.024483964 13377280
-0.015105796 0.046140097 0.025477659 13377280
-0.0055876789 0.047951221 0.026076525 13377280
0.0050194399 0.047970623 0.026119299 13377280
0.015105839 0.046140131 0.025477652 13377280
0.024167279 0.042723566 0.024483977 13377280
0.030765997 0.040436503 0.021047998 13377280
-0.0042863633 0.050384101 0.021498917 13377280
0.0036269231 0.050409235 0.021524925 13377280
-0.020778667 -0.040448338 0.030926995 13377280
-0.014079097 -0.041878067 0.03258194 13377280
-0.0051068347 -0.04296736 0.033746228 13377280
0.0045732544 -0.04300287 0.033751514 13377280
0.014079068 -0.041878067 0.032581922 13377280
0.020778665 -0.040448327 0.030926995 13377280
-0.031659469 -0.031659666 0.03187627 13377280
-0.024620397 -0.034431852 0.03481124 13377280
-0.015681161 -0.036906645 0.037438244 13377280
-0.0055569396 -0.038553923 0.038706291 13377280
0.0050938907 -0.038581386 0.03872104 13377280
0.015681159 -0.03690666 0.03743824 13377280
0.024620416 -0.034431897 0.034811262 13377280
0.031659473 -0.031659603 0.031876266 13377280
-0.040448334 -0.020778999 0.030926995 13377280
-0.034431759 -0.024620535 0.034811262 13377280
-0.027518515 -0.027518557 0.0387692 13377280
0.027518483 -0.027518556 0.038769197 13377280
0.034431767 -0.02462052 0.034811269 13377280
0.040448334 -0.020779001 0.030926995 13377280
-0.041877978 -0.014079219 0.032581929 13377280
-0.036906548 -0.015681241 0.037438244 13377280
0.036906552 -0.015681239 0.037438244 13377280
0.041877992 -0.014079245 0.032581933 13377280
-0.042967256 -0.0051069194 0.033746235 13377280
-0.038553823 -0.0055570309 0.038706288 13377280
0.038553823 -0.00555703 0.038706288 13377280
0.042967245 -0.0051069339 0.033746235 13377280
-0.043002706 0.0045731794 0.033751518 13377280
-0.038581245 0.005093806 0.038721036 13377280
0.038581248 0.0050938064 0.03872104 13377280
0.043002725 0.0045731794 0.033751499 13377280
-0.041877963 0.014078949 0.03258194 13377280
-0.036906533 0.015681064 0.037438236 13377280
0.036906537 0.015681064 0.037438247 13377280
0.04187794 0.014078972 0.032581922 13377280
-0.040448334 0.020778667 0.030926995 13377280
-0.034431711 0.024620302 0.034811262 13377280
-0.027518412 0.027518298 0.038769197 13377280
0.027518407 0.027518298 0.0387692 13377280
0.034431711 0.0246203 0.034811269 13377280
0.040448334 0.020778667 0.030926995 13377280
-0.031659268 0.031659134 0.03187627 13377280
-0.024620363 0.034431592 0.034811251 13377280
-0.015681127 0.036906421 0.037438247 13377280
-0.0055569718 0.038553711 0.038706288 13377280
0.0050938595 0.03858117 0.038721029 13377280
0.015681121 0.036906406 0.037438247 13377280
0.024620388 0.034431584 0.034811258 13377280
0.031659272 0.031659137 0.03187627 13377280
-0.020778665 0.040448338 0.030926995 13377280
-0.014078998 0.041877791 0.032581922 13377280
-0.0051067988 0.042967148 0.033746239 13377280
0.0045732707 0.043002658 0.033751499 13377280
0.014078975 0.04187784 0.032581951 13377280
0.020778665 0.040448334 0.030926995 13377280
-0.020894 -0.030454502 0.040751997 13377280
-0.014135571 -0.032296292 0.042092301 13377280
-0.0050770007 -0.033398774 0.04323585 13377280
0.0046539181 -0.033431988 0.043241762 13377280
0.014135596 -0.032296285 0.042092297 13377280
0.020894 -0.030454498 0.040751997 13377280
-0.030454502 -0.020894499 0.040751997 13377280
-0.024051629 -0.024051677 0.04303056 13377280
-0.014909818 -0.024866685 0.04651954 13377280
-0.005372006 -0.025909167 0.048066821 13377280
0.005062093 -0.025943082 0.048071109 13377280
0.014909816 -0.024866702 0.04651954 13377280
0.024051616 -0.024051698 0.043030541 13377280
0.030454502 -0.020894499 0.040751997 13377280
-0.032296181 -0.014135635 0.04209229 13377280
-0.02486659 -0.014909927 0.04651954 13377280
-0.017328212 -0.017328329 0.049153324 13377280
0.01732821 -0.017328326 0.049153313 13377280
0.024866588 -0.014909916 0.046519507 13377280
0.032296158 -0.014135648 0.042092297 13377280
-0.033398721 -0.0050770794 0.043235876 13377280
-0.025909113 -0.0053721126 0.048066795 13377280
0.025909096 -0.005372101 0.048066802 13377280
0.033398729 -0.0050770673 0.04323585 13377280
-0.03343194 0.0046538659 0.043241747 13377280
-0.025943009 0.005061998 0.048071083 13377280
0.025943015 0.0050620092 0.048071101 13377280
0.033431929 0.0046538552 0.043241758 13377280
-0.032296114 0.014135458 0.042092294 13377280
-0.024866583 0.014909762 0.046519522 13377280
-0.017328233 0.017328119 0.049153306 13377280
0.01732821 0.017328097 0.049153343 13377280
0.024866594 0.014909769 0.046519563 13377280
0.03229614 0.014135463 0.042092305 13377280
-0.030454502 0.020894 0.040751997 13377280
-0.024051573 0.024051515 0.04303056 13377280
-0.01490982 0.024866508 0.046519525 13377280
-0.0053720172 0.025909049 0.048066817 13377280
0.0050620842 0.025942972 0.048071109 13377280
0.01490982 0.024866527 0.04651954 13377280
0.024051562 0.024051497 0.043030567 13377280
0.030454498 0.020894 0.040751997 13377280
-0.020894 0.030454502 0.040751997 13377280
-0.014135582 0.032296058 0.042092301 13377280
-0.0050769998 0.033398718 0.043235883 13377280
0.0046539195 0.033431888 0.043241747 13377280
0.014135549 0.032296047 0.042092301 13377280
0.020894 0.030454498 0.040751997 13377280
-0.004397532 -0.021188235 0.050494425 13377280
0.0041226856 -0.021218216 0.050497741 13377280
-0.013786163 -0.013786239 0.051291116 13377280
-0.0048878388 -0.014539759 0.052655231 13377280
0.004701646 -0.014568522 0.052658483 13377280
0.013786158 -0.01378626 0.051291116 13377280
-0.021188166 -0.0043976996 0.050494421 13377280
-0.014539643 -0.0048879455 0.052655235 13377280
-0.0039163632 -0.0039164573 0.054576639 13377280
0.0038616457 -0.0039369683 0.054577872 13377280
0.014539669 -0.0048879404 0.052655268 13377280
0.021188203 -0.0043977005 0.050494418 13377280
-0.021218151 0.0041226563 0.050497744 13377280
-0.014568406 0.0047016023 0.05265848 13377280
-0.0039368668 0.0038615603 0.054577906 13377280
0.0034482139 0.0034481322 0.054626264 13377280
0.01456842 0.0047015995 0.052658461 13377280
0.021218188 0.0041226256 0.050497748 13377280
-0.013786159 0.0137861 0.05129106 13377280
-0.0048878458 0.014539561 0.052655261 13377280
0.0047016498 0.014568337 0.052658472 13377280
0.013786164 0.013786105 0.051291149 13377280
-0.0043975324 0.021188168 0.050494418 13377280
0.0041226875 0.021218155 0.050497741 13377280
